NCOLS 131 
NROWS 163 
XLLCORNER 490043 
YLLCORNER 3121058 
CELLSIZE 30 
NODATA_value -9999 
42.000000000000000 43 45 45 46 46 46 46 46 47 48 49 48 47 47 46 45 45 44 43 42 42 41 40 40 40 40 41 42 42 42 42 42 42 43 42 40 39 38 37 37 37 37 37 37 37 37 38 39 40 40 41 42 43 44 44 44 44 44 43 42 42 41 41 41 42 43 44 44 46 46 45 45 44 44 44 43 41 40 41 41 42 43 43 44 43 42 41 41 42 43 42 42 42 41 39 38 38 37 37 36 36 36 36 36 35 35 35 34 34 34 33 32 31 30 30 29 31 32 34 34 33 32 32 31 31 31 32 33 32 31
42 43 44 45 45 46 46 46 45 45 47 48 47 47 46 45 44 44 43 43 42 42 41 40 40 39 39 40 41 41 41 41 41 42 42 41 40 38 37 37 37 37 37 37 37 37 37 38 39 40 41 42 43 44 45 45 45 44 44 43 43 43 42 41 41 42 43 43 44 45 45 45 45 45 44 44 43 42 41 42 42 43 43 44 44 43 42 41 41 41 42 41 41 41 40 39 38 37 37 36 35 35 35 35 34 34 34 33 33 33 32 32 32 30 30 29 29 30 32 33 33 33 32 31 31 31 31 32 32 31 31
41 43 44 45 45 45 45 45 44 44 45 47 46 46 46 45 44 43 43 43 42 42 41 40 40 39 39 39 40 41 41 41 41 41 41 40 39 37 37 37 37 37 37 37 37 37 37 38 39 40 42 43 44 45 46 46 46 45 44 44 44 43 43 42 42 42 42 43 44 44 45 45 46 46 45 44 43 43 42 43 43 43 44 44 44 43 42 41 41 41 41 41 41 40 39 38 37 37 36 35 35 34 34 33 33 33 32 32 32 31 31 30 30 30 29 29 29 30 31 32 32 32 32 31 31 31 31 31 31 31 31
41 43 44 44 45 45 45 44 43 44 45 46 46 46 46 45 44 43 43 43 42 41 40 40 39 39 39 39 40 40 40 40 40 40 40 39 38 36 36 36 36 36 36 36 36 37 37 38 39 40 42 43 44 44 45 46 45 44 44 44 43 43 42 42 42 42 42 43 43 44 44 45 46 45 44 44 43 43 43 43 43 43 44 44 43 42 42 41 41 41 41 41 41 39 38 37 36 36 35 35 34 34 33 33 32 32 31 31 31 30 30 30 30 30 29 29 28 29 30 31 31 31 30 30 30 30 30 30 31 31 30
41 42 43 44 44 45 44 44 43 44 45 46 46 46 46 45 44 43 43 42 41 40 40 39 39 39 39 39 39 39 39 39 39 39 39 38 37 36 36 36 36 36 36 35 36 36 37 38 39 40 42 42 43 43 44 45 44 44 44 43 43 43 42 42 42 42 42 42 43 43 44 44 44 44 44 44 43 43 43 43 43 43 44 43 42 42 41 41 41 41 42 42 40 38 37 36 35 35 35 35 34 33 33 32 32 31 31 30 30 30 30 30 30 30 29 29 28 29 30 30 30 30 29 29 29 29 29 30 30 30 29
41 42 43 44 44 44 44 43 43 43 44 45 46 46 46 45 44 43 42 41 40 40 39 39 39 39 38 38 38 38 38 38 38 38 38 37 36 36 36 36 36 35 35 35 35 36 36 38 39 40 41 41 42 42 43 44 44 44 43 43 43 42 42 42 42 42 42 42 42 42 43 43 43 44 44 44 43 43 43 43 43 43 43 42 42 41 41 41 41 42 42 40 38 36 36 35 35 35 35 34 34 33 32 32 31 30 30 30 30 30 30 30 30 30 29 28 28 28 29 30 29 28 28 28 28 28 28 29 29 29 29
41 42 43 43 43 43 43 42 42 43 44 45 45 46 46 45 43 42 42 41 40 40 39 38 38 38 38 37 37 37 38 38 38 38 38 38 37 36 36 36 36 36 36 36 36 37 37 38 39 40 40 40 41 41 42 43 43 43 43 42 42 42 42 42 42 42 42 42 42 43 43 43 44 43 43 43 43 42 42 41 42 42 42 41 40 40 40 40 41 41 42 40 38 36 36 35 35 35 35 34 34 33 32 31 31 31 30 30 30 30 30 30 29 29 29 28 27 28 28 29 29 28 28 28 28 27 27 28 28 28 28
42 42 43 42 42 42 41 42 42 43 43 44 44 45 45 44 43 41 41 41 40 40 39 38 37 37 37 37 37 37 37 38 38 38 38 38 38 37 37 37 37 37 37 37 37 37 37 38 39 40 40 39 40 40 42 43 42 42 42 42 42 42 42 42 42 42 42 42 42 43 43 44 44 44 42 42 42 42 41 41 40 40 40 40 39 39 39 39 40 41 41 39 38 36 36 36 35 35 35 35 34 33 32 31 31 31 31 30 30 30 30 29 29 28 28 28 27 27 28 28 28 28 28 28 28 27 27 27 27 27 27
42 42 42 42 41 41 41 42 42 43 43 43 44 44 44 43 42 41 41 41 40 39 38 37 37 37 37 37 37 37 37 37 38 38 38 38 38 38 38 38 38 38 38 38 37 37 37 38 39 40 40 39 39 40 41 42 42 42 42 42 42 42 42 42 42 42 42 42 42 43 44 44 44 44 43 42 41 41 41 40 39 39 38 38 38 38 38 39 39 40 40 39 38 36 36 36 35 35 35 35 34 33 32 31 31 31 31 31 30 30 30 29 28 28 27 27 27 27 27 27 28 28 28 28 28 27 27 27 27 27 27
41 42 42 42 41 41 40 41 41 42 42 42 43 43 43 42 41 40 40 40 40 39 38 37 37 37 37 37 37 37 37 37 37 38 38 38 38 38 38 38 39 39 38 38 38 39 39 39 40 41 40 39 39 40 41 41 42 42 42 42 42 42 43 42 42 42 42 43 44 44 44 44 44 44 42 42 41 41 41 40 39 38 38 37 37 37 37 38 38 39 39 38 37 37 38 37 37 37 36 34 33 33 32 32 31 31 31 31 30 30 29 29 28 28 28 28 28 28 28 28 28 28 28 28 28 28 27 27 27 27 27
41 42 42 42 42 41 41 40 40 41 41 41 42 42 42 41 41 40 40 39 39 38 38 37 37 37 37 37 37 37 37 37 37 37 38 38 38 38 38 39 39 39 39 39 39 39 40 40 41 41 40 39 39 40 40 40 41 42 42 42 42 42 43 43 43 43 44 45 45 45 45 44 44 43 43 42 42 41 41 40 39 38 37 37 36 36 36 36 37 38 38 37 38 38 39 39 39 38 36 34 33 32 32 32 31 31 31 31 30 29 29 28 28 29 29 29 29 29 28 28 28 28 28 28 28 28 28 27 27 27 27
41 42 42 42 42 42 41 40 40 40 40 41 41 41 41 41 41 40 40 39 38 38 38 37 37 37 37 37 37 37 37 37 37 38 38 39 39 39 39 39 39 39 39 39 40 40 41 41 41 42 41 40 39 39 39 39 40 41 42 42 42 42 43 43 44 44 45 46 46 46 45 45 44 43 43 43 42 41 41 40 39 38 37 36 36 36 36 36 36 37 37 38 38 39 39 40 40 37 35 33 33 32 32 32 32 31 31 31 30 29 29 29 29 30 30 30 30 29 28 28 28 28 28 28 28 27 27 27 27 27 27
42 42 43 43 42 42 42 41 40 41 41 41 41 41 41 40 40 40 39 39 38 38 38 37 37 37 37 37 37 37 36 36 37 38 38 39 39 38 38 38 39 39 39 40 41 41 41 42 42 43 42 41 40 40 40 40 41 42 43 42 43 44 44 44 44 45 46 46 46 46 46 46 44 43 43 42 42 41 40 39 38 39 38 38 37 37 36 36 36 37 37 37 38 39 40 40 39 37 35 34 33 32 32 32 32 32 32 31 31 30 30 30 31 30 30 30 30 30 29 28 28 28 28 28 27 27 27 27 27 27 27
42 43 43 43 43 43 42 42 41 41 41 41 41 40 40 40 40 40 39 38 38 38 38 37 37 37 37 37 37 36 36 37 38 38 38 39 38 37 37 38 39 39 40 41 41 42 42 42 43 44 43 43 42 42 41 41 42 43 43 43 44 45 45 45 45 46 47 47 47 47 47 46 44 43 43 42 41 41 40 39 40 40 40 39 38 38 36 36 36 36 36 37 39 40 40 40 39 37 35 34 33 33 33 33 33 33 32 32 31 31 31 32 31 31 31 31 31 30 29 28 28 28 28 27 27 27 27 27 27 27 27
43 43 43 44 44 44 43 42 42 41 41 41 40 40 39 39 39 39 39 38 37 37 37 38 38 38 37 37 36 36 36 37 38 38 38 38 37 37 37 38 38 39 40 41 42 42 43 43 44 46 45 44 44 43 42 42 42 43 44 45 46 47 46 46 46 47 47 48 48 48 47 46 44 43 42 42 41 40 40 40 41 41 40 39 38 37 36 35 35 35 36 37 39 40 40 39 38 37 35 34 34 34 34 34 34 34 33 33 33 33 33 32 32 32 32 32 32 31 30 29 28 28 27 27 27 26 27 27 27 27 27
43 43 43 44 44 44 43 43 42 41 41 41 40 40 39 39 39 39 38 38 37 37 37 38 38 38 37 37 36 36 36 37 38 38 38 38 37 37 37 38 38 40 41 42 43 43 43 44 45 46 45 45 45 44 43 43 43 44 45 46 47 47 47 47 47 47 48 47 47 48 47 45 44 43 42 41 41 40 39 39 40 41 40 39 38 37 36 35 35 35 35 37 38 39 36 36 35 34 34 35 35 34 34 34 34 34 35 34 34 34 33 33 32 32 32 32 33 32 31 29 28 27 27 27 26 26 26 26 26 26 27
43 43 43 44 44 44 44 43 42 42 41 41 40 39 39 39 39 39 38 37 37 37 37 38 38 38 37 37 36 36 37 37 38 38 38 38 37 37 37 37 38 39 41 43 43 43 43 44 45 46 46 46 46 45 45 44 44 44 45 46 47 48 48 47 47 48 48 47 47 47 46 45 44 43 42 41 40 40 39 39 39 40 39 38 38 37 36 35 35 34 34 36 38 38 36 33 32 32 34 35 35 35 35 35 35 35 36 36 35 35 34 33 33 32 32 33 34 33 31 29 28 27 27 26 26 26 25 25 25 26 26
43 43 43 44 44 45 44 44 43 42 42 41 40 39 39 39 39 39 38 37 37 37 37 38 38 38 37 37 37 37 37 37 38 38 38 37 37 37 37 37 38 39 41 43 44 44 44 44 46 46 47 47 47 46 46 46 46 46 46 47 48 48 48 48 48 48 48 48 47 47 46 45 44 43 42 41 40 39 38 39 39 39 39 38 37 37 36 35 35 34 34 36 37 38 35 32 31 32 34 35 35 35 36 36 36 36 36 36 36 35 35 34 33 33 33 34 35 33 31 29 28 27 27 26 26 26 25 25 25 25 26
43 43 44 45 45 46 46 45 44 44 43 42 41 41 40 40 40 39 38 37 37 37 37 38 38 38 37 37 37 37 37 38 38 38 38 38 37 37 38 39 39 41 43 43 44 44 44 45 46 46 47 47 47 47 46 46 46 46 46 47 48 48 48 48 48 48 48 48 48 47 46 45 44 43 42 40 39 38 38 38 38 38 38 37 37 36 36 35 35 35 34 36 36 34 34 31 30 31 33 33 33 34 35 36 36 36 36 36 36 35 34 34 33 33 32 32 33 31 29 29 29 28 27 27 27 26 26 25 25 26 26
43 44 45 45 46 47 47 46 46 45 44 43 42 42 41 41 40 40 39 37 37 37 37 38 38 38 37 37 38 38 38 38 38 38 38 38 38 38 39 40 40 42 43 43 44 44 44 45 46 46 47 47 47 47 47 47 47 46 46 47 47 48 48 48 48 49 49 49 48 47 46 45 44 43 41 39 38 38 37 37 37 36 36 36 36 36 36 35 35 35 35 35 33 31 31 30 29 30 30 31 32 33 34 35 36 36 36 36 36 35 34 33 33 33 32 31 32 30 29 29 29 29 28 28 27 27 26 26 25 26 26
43 44 45 46 47 48 48 47 47 46 45 44 43 42 42 41 41 40 39 38 37 37 38 38 38 38 38 38 39 39 39 39 39 39 39 39 39 39 39 40 41 42 43 43 44 44 45 45 46 47 47 48 48 48 48 48 47 47 47 47 47 47 48 48 48 49 49 49 48 47 46 45 44 42 40 38 37 37 37 37 36 36 36 36 36 36 36 36 35 35 35 33 31 30 29 28 28 29 29 30 31 33 34 35 35 35 35 36 35 34 33 33 33 32 32 31 30 30 29 28 29 29 28 28 28 28 27 26 26 26 26
43 44 45 46 48 48 48 48 47 46 45 44 43 43 42 41 41 40 40 39 38 38 38 38 38 38 39 39 39 40 39 39 39 39 38 38 39 39 39 40 41 42 43 44 44 45 46 46 47 47 48 49 49 49 49 48 48 48 47 48 48 47 47 47 48 48 48 48 47 46 45 44 43 42 41 39 38 38 38 38 37 37 36 36 36 36 36 37 37 36 36 34 33 31 30 29 29 30 30 30 31 33 34 35 34 34 34 34 34 33 32 32 32 32 31 31 30 29 29 28 28 29 28 28 28 28 28 27 26 26 26
43 44 45 46 48 49 49 48 47 46 45 44 44 43 42 41 41 40 40 40 39 39 39 39 39 39 39 40 40 41 40 39 39 38 38 38 38 39 39 40 41 42 43 44 45 46 47 47 48 48 49 49 50 50 49 48 48 48 48 48 48 47 47 47 47 47 48 47 46 45 44 44 43 42 41 40 39 39 39 39 38 38 37 37 36 37 38 39 38 37 37 35 34 33 32 30 30 30 30 31 32 33 34 34 33 33 33 32 32 32 31 31 31 31 31 30 30 29 28 28 28 28 28 28 28 28 28 28 27 27 27
43 44 45 46 48 49 49 48 47 46 46 45 44 43 42 41 41 40 40 40 40 40 40 40 40 40 40 41 42 41 40 39 38 38 38 38 38 39 39 40 41 42 44 44 45 46 47 48 48 48 49 50 50 49 49 48 48 48 48 48 47 47 47 46 46 47 47 47 46 45 44 43 43 42 41 40 40 40 40 40 39 39 38 38 37 38 39 39 39 38 37 36 35 34 33 32 31 31 31 31 33 34 33 33 32 32 32 31 31 31 30 31 31 30 30 30 29 29 28 28 28 28 28 28 28 27 27 27 28 28 28
44 45 45 46 48 49 48 47 47 47 46 45 44 43 42 41 41 40 40 40 40 40 41 41 41 41 42 43 43 42 41 40 39 38 38 39 39 39 40 41 42 43 44 45 46 47 47 47 48 48 48 49 49 48 48 48 48 48 47 47 46 46 46 46 46 46 47 46 45 45 44 43 43 42 41 41 41 41 41 40 40 40 39 38 38 38 39 39 38 38 37 36 36 35 34 33 32 32 32 33 34 33 32 32 32 31 31 31 30 30 30 31 30 30 29 29 29 28 28 28 28 28 28 28 27 27 27 27 28 28 28
44 45 45 46 47 48 48 48 48 48 47 45 44 43 42 41 41 40 41 41 41 41 42 42 42 43 44 44 43 43 41 40 39 39 39 39 40 40 41 42 43 44 44 45 46 46 47 47 47 47 47 47 47 47 47 48 47 47 46 46 45 45 45 45 46 46 46 45 45 45 44 43 43 42 42 42 42 42 41 41 41 40 40 39 38 39 39 39 38 38 37 37 36 36 35 34 33 33 34 34 33 32 32 31 31 31 30 30 30 30 30 30 30 29 29 29 29 28 28 28 28 28 28 27 27 27 27 27 28 28 29
45 45 46 46 47 48 49 49 48 47 46 45 44 42 42 42 41 41 41 42 42 42 42 43 43 44 44 44 44 43 41 40 39 39 39 39 40 40 41 42 43 43 44 45 45 45 46 46 46 46 46 46 46 46 46 47 46 46 45 45 44 45 45 45 46 46 46 45 45 45 44 43 43 42 42 42 42 41 41 41 41 41 40 39 39 39 39 39 38 38 37 37 37 36 36 35 34 35 35 34 33 32 32 31 31 30 30 30 30 30 30 30 29 29 29 29 28 28 28 28 29 28 28 27 27 27 27 28 28 29 29
46 47 47 48 48 49 49 49 48 46 45 44 43 42 42 42 42 42 42 42 42 42 43 43 43 44 44 44 43 42 41 40 39 39 40 40 39 39 40 41 42 42 43 43 44 44 44 45 45 45 45 45 44 45 45 44 45 45 44 44 44 45 45 46 46 46 47 46 45 45 44 44 44 42 40 40 40 40 41 41 41 41 40 40 40 40 39 39 38 38 37 37 37 36 37 36 36 36 36 35 34 33 32 31 30 30 30 30 30 30 30 30 29 29 29 28 28 28 28 27 28 29 29 28 28 27 28 28 29 29 30
47 48 49 49 49 49 49 48 47 46 44 43 42 42 42 43 43 43 43 43 42 43 43 43 43 44 44 43 42 41 40 39 39 39 40 40 39 39 39 40 41 42 42 42 42 43 43 44 44 45 44 44 43 43 43 42 43 44 44 44 44 45 45 46 46 47 48 47 46 45 44 44 44 43 41 39 39 40 40 41 41 41 41 41 40 40 40 39 39 38 37 37 36 36 36 37 37 37 36 36 34 33 32 31 30 30 30 30 30 30 30 29 29 29 28 28 28 27 27 27 28 29 29 29 28 27 28 29 29 30 30
48 49 49 50 50 50 49 48 47 45 44 43 43 43 43 43 43 43 43 43 43 43 43 43 43 44 44 43 42 41 40 39 39 39 40 40 39 39 39 40 41 42 42 42 42 42 42 43 44 44 44 43 42 42 42 42 42 43 44 44 44 45 45 46 47 47 48 48 47 45 45 45 45 43 41 39 39 40 40 41 41 41 41 41 41 40 40 39 39 38 37 37 36 36 36 37 37 37 37 36 35 33 32 31 30 30 30 30 30 30 30 29 29 29 28 28 28 27 27 27 28 29 29 29 28 28 28 29 30 30 30
48 49 49 50 50 50 49 48 47 45 44 43 43 43 43 43 43 43 43 43 43 43 43 43 43 44 44 43 42 41 40 39 39 39 40 40 39 39 39 40 41 42 42 42 42 42 42 43 44 44 44 43 42 42 42 42 42 43 44 44 44 45 45 46 47 47 48 48 47 45 45 45 45 43 41 39 39 40 40 41 41 41 41 41 41 40 40 39 39 38 37 37 36 36 36 37 37 37 37 36 35 33 32 31 30 30 30 30 30 30 30 29 29 29 28 28 28 27 27 27 28 29 29 29 28 28 28 29 30 30 30
48 49 49 50 50 50 49 48 47 45 44 43 43 43 43 43 43 43 43 43 43 43 43 43 43 44 44 43 42 41 40 39 39 39 40 40 39 39 39 40 41 42 42 42 42 42 42 43 44 44 44 43 42 42 42 42 42 43 44 44 44 45 45 46 47 47 48 48 47 45 45 45 45 43 41 39 39 40 40 41 41 41 41 41 41 40 40 39 39 38 37 37 36 36 36 37 37 37 37 36 35 33 32 31 30 30 30 30 30 30 30 29 29 29 28 28 28 27 27 27 28 29 29 29 28 28 28 29 30 30 30
48 49 50 50 50 50 49 48 46 45 44 43 43 43 43 43 43 44 44 43 43 43 43 43 42 43 43 42 41 41 40 39 39 39 40 41 40 40 40 41 42 42 42 42 42 42 42 42 43 44 44 43 42 42 42 42 42 43 44 44 44 45 45 46 47 47 48 47 46 45 44 44 44 43 41 39 39 40 40 40 41 41 41 41 40 40 40 39 39 38 37 36 36 35 36 36 37 36 36 36 35 33 32 31 30 29 29 29 29 29 29 29 29 28 28 28 27 27 27 27 28 29 30 29 29 28 28 29 30 30 30
49 50 50 50 50 50 49 48 45 44 44 43 43 43 43 43 44 44 44 44 44 44 43 43 42 42 42 41 40 40 40 39 39 39 40 40 41 41 41 42 42 42 42 42 42 42 42 42 41 42 43 43 42 42 42 43 43 44 44 44 45 45 45 45 46 47 46 46 45 44 43 43 44 43 41 39 39 39 38 39 40 40 40 40 40 40 39 38 38 38 37 36 36 35 35 35 36 35 35 34 34 33 32 31 30 30 29 29 29 29 29 29 28 28 28 27 27 27 27 28 29 30 31 30 30 29 29 29 30 30 31
50 50 51 51 51 50 49 46 43 43 43 43 43 43 43 43 44 44 44 44 44 44 44 43 42 41 41 40 39 39 39 39 39 39 39 40 41 42 42 42 42 42 42 42 42 42 42 41 41 41 41 41 42 42 43 44 44 44 44 45 45 45 45 45 46 45 45 45 44 43 43 43 43 43 41 39 38 38 37 38 39 40 40 40 40 39 38 38 37 37 36 36 36 35 35 35 35 34 33 33 33 33 32 31 31 30 29 29 29 29 29 29 28 28 27 27 27 27 28 29 30 31 31 31 31 30 30 30 30 30 31
50 51 51 51 50 49 48 46 43 43 43 43 43 43 43 43 44 45 45 45 45 45 44 44 42 41 40 40 39 39 39 39 39 39 40 41 42 43 43 43 43 43 43 43 43 43 42 42 42 41 41 42 42 43 44 45 45 45 45 45 46 45 44 44 44 44 43 43 42 42 42 43 43 42 40 39 38 38 37 38 39 39 39 39 39 39 38 37 37 36 36 36 35 35 34 34 34 33 32 32 32 32 32 31 30 30 29 29 29 29 29 29 28 28 28 28 28 28 29 30 30 31 32 31 31 31 30 30 30 31 31
50 50 50 50 49 46 46 46 43 43 43 43 43 43 43 43 44 45 45 46 46 45 45 44 42 41 40 40 39 39 39 39 39 40 40 41 42 43 44 44 44 44 43 43 43 44 43 43 42 41 42 42 43 44 44 45 45 46 46 46 45 45 44 43 43 42 41 41 40 41 41 42 42 41 40 38 38 38 37 38 38 38 39 39 39 38 38 37 36 36 35 35 34 34 33 33 32 32 31 31 31 31 31 30 30 29 29 29 29 29 29 29 29 29 29 29 29 30 31 31 31 31 32 32 31 31 31 30 30 31 31
50 50 50 49 46 44 43 43 43 43 43 43 43 43 43 43 44 45 45 46 46 46 45 44 43 41 40 40 40 39 39 39 40 40 41 42 43 44 44 44 44 44 43 43 43 44 44 44 43 42 42 43 43 44 45 45 46 46 46 46 45 44 43 42 41 40 39 39 39 39 40 41 41 41 39 38 38 38 38 38 38 38 38 38 39 38 37 37 36 35 35 34 33 33 32 32 31 31 30 30 30 30 29 29 29 29 29 29 29 29 29 29 29 29 30 30 30 31 32 32 32 32 32 32 31 31 31 31 31 31 31
48 48 48 47 46 43 43 43 43 43 43 43 43 43 43 45 45 46 47 47 47 46 45 44 43 41 40 40 40 40 39 39 40 40 41 42 43 44 44 44 44 44 44 43 43 44 45 44 43 42 43 44 44 44 45 45 46 46 46 46 45 44 43 42 41 40 39 38 38 38 39 40 41 41 40 38 38 38 38 37 37 37 38 38 38 38 37 36 35 34 34 33 32 32 32 31 31 30 30 30 30 30 29 29 29 29 29 29 29 29 30 30 30 30 31 31 32 32 33 33 33 33 32 32 31 31 31 31 31 32 32
47 47 45 45 45 43 43 43 43 43 43 43 43 44 44 46 47 48 48 48 47 46 45 44 42 41 40 40 40 40 39 39 39 40 41 42 43 43 44 44 44 44 44 43 44 45 46 46 44 43 44 44 44 44 45 45 46 46 46 46 45 44 43 42 40 40 39 38 38 37 38 39 40 40 40 39 38 38 38 37 37 37 37 38 38 37 37 36 35 33 33 32 32 32 31 31 31 30 30 30 30 30 29 29 29 29 29 29 29 29 30 31 31 31 32 32 33 34 33 33 33 33 32 32 31 31 32 32 32 32 31
45 44 43 43 43 43 43 43 43 43 43 43 44 45 45 47 48 49 49 48 47 46 45 43 42 41 40 40 41 41 40 39 39 40 41 42 43 43 44 44 44 44 44 44 44 46 47 47 46 44 44 44 44 44 44 45 45 46 46 46 45 44 43 41 40 40 39 38 38 37 37 38 39 39 39 39 38 38 38 37 37 37 37 37 38 37 37 36 35 33 32 32 32 31 31 31 30 30 30 30 30 30 29 29 29 29 29 29 29 30 30 31 32 32 33 34 34 34 34 33 33 33 32 32 32 32 32 32 32 32 31
44 43 43 43 43 43 43 43 43 44 44 44 45 45 46 47 48 49 48 47 47 46 44 43 42 40 40 41 42 41 40 39 39 40 41 42 43 44 44 44 45 45 45 45 46 48 48 47 46 45 44 44 44 44 45 45 45 46 46 46 45 44 43 41 41 40 39 39 38 37 38 39 39 39 38 38 37 37 37 36 36 36 36 37 37 36 36 35 34 32 31 31 31 31 30 30 30 30 30 29 29 29 29 29 29 29 29 29 29 30 31 32 32 33 34 34 35 35 34 34 33 33 33 32 32 32 33 33 33 32 32
43 43 43 43 43 43 43 43 45 45 45 45 45 46 46 47 48 48 47 47 47 45 44 43 41 41 41 42 42 41 40 40 40 41 42 43 43 44 44 45 46 46 46 47 48 48 49 48 47 45 45 44 44 45 45 45 45 46 46 46 45 44 43 42 41 40 40 39 38 38 38 39 38 38 37 36 36 36 36 35 35 35 35 36 36 35 35 34 33 32 31 31 30 30 30 30 30 30 29 29 29 29 29 29 29 29 29 29 30 31 32 32 33 34 34 35 36 36 35 34 33 33 33 33 33 33 33 34 34 33 33
43 43 43 43 43 43 43 45 46 46 46 46 46 46 46 47 47 47 47 47 46 45 44 42 42 42 42 42 42 41 41 40 40 41 42 43 44 44 45 46 46 47 48 48 49 49 49 48 47 46 45 45 45 45 45 45 45 46 46 46 45 44 43 42 41 41 40 39 39 39 38 38 38 37 36 35 35 35 35 34 34 34 34 34 34 34 34 33 32 31 30 30 30 30 30 30 30 30 29 29 29 29 29 29 29 29 29 29 30 31 32 33 34 34 35 36 36 36 35 34 34 34 34 34 34 34 34 34 34 34 34
43 43 43 44 44 44 45 47 47 47 47 46 46 47 47 46 46 47 46 46 45 44 43 43 42 42 42 42 42 42 41 40 40 41 42 43 44 45 46 46 47 47 48 48 49 49 49 49 47 46 45 45 45 45 45 45 46 46 47 46 45 44 43 42 41 41 40 40 40 40 39 39 38 37 36 35 35 35 34 33 33 33 33 33 33 33 33 33 33 32 31 30 30 30 29 30 30 29 29 29 29 29 29 29 29 30 31 31 32 33 34 34 35 35 36 36 37 36 35 34 34 34 34 34 34 34 35 35 35 35 34
43 43 43 44 45 46 47 47 47 47 47 47 47 47 47 46 46 46 45 45 44 43 43 43 43 42 42 42 42 42 41 41 41 42 43 44 45 46 46 47 47 47 48 48 49 49 49 49 48 46 46 45 45 45 45 45 46 47 47 46 44 43 43 42 41 41 41 41 41 41 40 40 39 37 36 35 35 34 33 32 32 32 32 32 32 32 32 33 32 32 31 31 30 30 29 29 29 29 29 29 29 29 29 29 30 31 32 33 34 34 35 36 36 36 37 37 37 36 35 34 34 34 34 34 35 35 35 36 36 35 34
43 43 43 44 45 47 48 48 48 48 48 48 47 47 47 46 46 45 45 44 43 43 43 43 43 43 43 43 43 42 42 41 41 42 43 44 45 46 47 47 47 48 48 48 49 49 49 49 48 47 46 45 45 45 45 45 46 47 47 45 44 42 42 42 41 41 41 41 41 41 41 40 39 38 36 35 34 33 32 32 32 32 32 32 32 32 32 32 32 32 31 31 31 30 30 29 29 29 29 29 29 29 30 30 30 31 33 34 35 36 36 37 37 38 38 38 38 37 36 35 35 35 35 35 35 36 36 36 36 35 34
43 43 44 45 47 48 48 49 49 49 49 48 48 47 47 47 46 45 45 44 43 43 43 43 44 44 44 44 44 43 42 41 41 42 43 43 44 46 46 47 47 47 48 48 48 49 49 48 47 47 46 46 45 45 45 46 45 46 46 45 43 41 41 41 41 41 41 41 41 41 41 40 39 38 37 35 34 33 32 32 32 32 32 32 32 32 32 32 32 32 31 31 31 30 29 28 28 28 29 29 29 29 30 31 31 32 33 35 36 36 37 38 38 38 38 38 38 37 36 35 35 35 35 35 35 36 36 36 36 35 34
44 44 45 46 47 48 49 49 50 50 49 48 48 48 47 47 46 45 45 44 43 43 43 43 44 45 45 45 45 44 42 41 41 42 42 43 44 45 46 46 47 47 47 48 48 48 49 48 48 48 47 46 45 45 46 47 46 45 46 44 42 40 40 40 40 40 40 40 40 41 41 40 40 38 37 35 34 33 32 32 32 32 32 32 32 32 31 31 31 32 31 31 30 29 28 28 27 28 28 29 29 29 30 31 32 33 34 35 36 37 38 38 38 38 38 38 38 37 37 36 35 35 35 35 36 37 36 36 36 35 34
45 45 46 47 48 48 49 50 50 50 49 49 48 48 48 47 46 46 45 44 44 44 44 44 45 45 46 46 46 45 43 42 41 41 41 42 44 45 46 46 46 47 47 47 48 48 48 49 49 49 48 47 46 46 47 47 47 46 45 43 41 40 40 40 40 40 40 40 40 40 40 40 39 38 37 35 34 33 32 32 32 32 32 32 32 31 31 31 31 31 31 30 29 28 28 27 27 27 28 29 29 29 30 31 32 33 35 36 37 38 38 38 38 37 38 38 39 38 37 37 36 35 35 36 37 37 37 36 35 35 34
44 45 46 47 48 49 49 50 51 50 50 49 49 48 48 47 47 46 46 45 45 45 45 45 46 46 47 47 46 45 44 42 41 42 41 42 43 44 44 45 45 46 46 46 47 47 48 49 49 49 48 47 47 47 48 47 47 46 45 43 42 41 41 41 40 40 39 39 39 39 39 38 38 37 35 34 33 32 32 32 32 32 32 32 32 32 32 31 31 32 31 30 29 29 28 27 27 27 28 28 29 29 30 31 32 34 35 36 37 38 38 37 37 38 39 39 39 38 38 37 36 35 35 36 37 38 37 37 36 35 34
44 45 46 47 48 49 50 50 51 51 50 49 49 49 48 48 47 47 46 46 46 46 46 47 47 47 48 47 47 46 44 43 42 42 41 41 42 43 43 44 45 45 45 45 46 47 48 49 49 50 49 48 48 48 48 47 47 46 45 44 43 43 42 41 40 40 39 38 38 38 37 37 37 36 35 33 32 32 32 32 32 32 32 32 33 33 32 31 32 32 31 30 30 29 28 27 27 27 28 28 28 29 30 31 33 34 35 36 37 37 37 37 38 39 39 39 39 39 38 37 36 35 35 36 37 38 38 37 37 36 34
44 45 46 47 48 49 50 50 51 51 50 50 49 49 49 48 48 48 47 47 47 47 47 48 48 48 48 48 47 46 45 43 42 42 41 41 41 42 43 44 44 45 45 45 46 47 48 49 50 50 50 49 48 48 48 47 47 46 45 44 44 43 42 41 40 39 38 37 37 37 37 37 37 36 34 33 32 32 32 32 32 32 33 33 34 33 33 32 32 32 32 31 30 30 29 27 27 27 28 28 29 29 30 32 33 34 35 36 37 37 37 37 38 39 40 40 39 38 37 37 36 36 35 36 38 38 38 38 37 36 34
45 46 46 46 47 48 49 49 50 50 50 49 49 49 49 49 48 48 48 47 47 48 48 48 48 49 49 48 47 47 46 44 43 42 41 41 41 42 42 43 44 45 45 45 46 47 48 49 49 50 49 49 47 47 46 46 46 45 44 44 43 43 43 42 41 40 39 38 37 37 37 37 36 35 34 33 32 32 32 33 34 34 35 35 36 35 34 33 32 32 32 31 30 30 30 29 28 28 29 29 30 30 31 33 33 34 35 36 37 37 37 38 39 40 40 40 39 38 37 38 37 37 36 38 38 38 38 38 37 36 35
46 46 46 46 46 47 48 48 48 49 49 49 49 49 49 49 49 48 48 48 48 48 48 48 49 49 49 48 48 47 46 45 44 43 42 41 41 41 42 43 44 45 45 45 46 47 48 49 49 50 49 47 46 46 45 44 44 44 44 43 43 43 42 42 41 40 39 39 38 37 37 37 36 35 34 33 32 32 32 34 35 36 37 37 37 37 35 34 33 32 32 32 31 30 30 30 29 29 30 30 31 31 32 33 33 34 35 36 37 37 37 38 39 40 40 39 39 38 38 39 39 38 38 38 38 38 38 38 37 37 37
46 46 46 46 46 46 47 47 48 48 48 49 49 49 49 49 49 49 49 49 49 49 49 48 49 49 49 48 48 47 46 45 44 43 42 42 42 42 42 43 44 45 45 46 46 47 48 49 49 49 48 47 45 45 44 43 43 43 43 43 42 42 42 41 41 40 40 39 38 37 37 36 36 35 34 33 33 33 33 34 36 38 38 38 39 37 36 35 34 33 32 32 31 30 30 30 29 30 30 31 31 32 33 33 33 34 35 36 37 37 38 38 39 40 40 39 39 39 39 39 39 39 38 38 38 37 37 37 37 37 37
47 47 46 46 46 46 47 48 48 48 49 49 49 49 49 49 49 49 49 49 49 49 48 48 48 48 48 48 47 47 45 44 43 42 42 42 42 43 43 44 45 45 46 46 46 47 48 48 48 48 47 46 45 44 43 43 42 42 42 41 41 41 41 41 40 40 39 38 37 37 36 36 35 34 33 33 34 34 34 35 37 38 39 39 39 38 37 36 34 33 32 32 31 31 30 29 29 29 30 31 31 32 32 33 33 34 35 35 36 38 38 39 40 40 40 39 39 39 39 39 39 38 38 38 38 37 37 37 37 37 37
48 47 47 46 46 46 46 47 48 49 49 49 49 49 49 49 49 49 49 49 49 48 48 48 48 48 48 47 47 46 45 43 42 42 42 42 43 44 45 45 45 46 46 46 46 47 48 48 47 47 46 45 44 43 43 43 42 41 40 40 40 40 40 40 40 39 38 37 36 36 36 35 35 34 34 34 34 35 35 36 38 39 39 40 40 39 38 38 36 34 32 32 32 31 30 29 29 29 30 31 31 32 32 32 33 33 34 35 36 37 38 39 39 40 39 39 39 39 39 39 38 38 38 38 38 37 37 37 37 37 37
49 48 47 47 46 46 47 48 49 49 50 50 50 50 50 50 50 50 49 49 48 48 48 47 47 47 47 47 47 46 45 43 43 43 43 43 44 45 46 46 46 46 46 46 46 47 48 47 47 47 46 45 44 43 43 43 42 41 40 40 40 39 39 39 39 38 37 36 36 36 35 35 34 35 35 35 35 35 36 37 38 40 40 40 41 40 39 38 36 34 32 32 32 31 30 29 29 30 30 31 31 31 32 32 33 33 33 34 35 37 38 38 39 39 39 39 39 39 39 39 38 38 38 38 38 38 37 37 37 37 37
50 49 49 48 47 47 48 49 49 50 51 51 51 51 51 50 50 50 49 49 48 48 47 46 47 47 47 47 46 45 45 43 43 43 43 44 45 46 46 46 46 46 46 46 47 48 48 48 47 47 46 45 44 44 43 43 42 41 40 40 40 39 39 39 38 37 37 36 36 35 35 34 34 35 35 35 36 36 37 38 39 40 40 41 41 40 39 38 36 34 32 32 32 31 31 30 29 30 30 31 31 32 32 33 33 33 33 34 35 36 38 38 38 38 39 39 39 39 39 39 39 38 38 38 38 38 38 37 37 37 37
52 51 50 49 49 48 49 49 50 51 51 52 52 52 52 51 51 50 50 49 48 47 46 45 46 46 47 46 45 45 44 43 43 43 45 45 46 47 47 47 47 47 47 47 48 48 48 48 48 47 46 45 44 44 44 43 43 42 41 41 40 39 39 38 37 37 37 36 36 35 34 34 34 34 35 36 36 37 38 39 40 41 41 41 41 41 39 38 36 34 32 32 31 31 30 30 30 30 30 31 31 32 33 33 33 33 33 33 35 36 37 38 38 38 38 39 39 39 40 40 40 39 38 38 38 38 38 38 37 37 36
52 52 51 50 50 49 49 50 51 51 52 53 53 53 52 52 51 50 50 49 48 47 45 44 45 45 46 45 45 44 44 43 43 44 45 46 47 47 48 48 48 48 48 48 48 48 48 48 48 47 46 45 45 45 44 43 43 42 41 41 40 39 39 38 37 37 37 36 36 35 35 35 34 35 36 37 38 38 39 40 41 41 41 41 41 40 39 38 36 34 32 31 31 30 30 30 30 30 30 31 31 32 33 33 34 34 34 34 35 36 37 37 37 37 38 39 39 40 40 41 40 39 39 38 38 38 38 38 37 36 36
53 52 52 51 50 50 50 51 51 52 53 53 53 52 52 51 51 50 49 48 47 46 44 43 44 45 45 45 45 45 44 44 44 45 46 46 47 48 48 48 49 49 49 48 48 48 48 47 47 46 45 45 46 45 44 43 42 42 41 41 40 39 39 38 37 37 37 36 36 36 36 36 35 36 37 38 39 40 40 40 41 40 40 40 40 39 38 36 34 33 31 31 31 30 30 30 30 30 30 31 31 32 33 34 34 34 34 34 35 36 36 36 37 37 38 38 39 40 40 41 40 40 39 39 38 38 38 37 37 36 36
53 53 52 52 51 50 51 51 52 53 53 53 52 52 52 51 50 50 49 48 47 45 43 42 43 44 45 45 45 45 45 44 45 45 46 47 47 48 49 49 50 50 49 49 48 48 47 46 46 46 46 46 46 45 44 43 42 42 41 41 40 39 38 37 37 37 37 36 37 37 37 37 36 37 38 40 40 40 40 40 40 40 40 39 39 38 36 35 33 32 31 31 31 30 30 30 30 30 30 31 32 33 34 34 34 34 35 35 36 36 36 36 36 37 37 38 39 40 41 41 41 40 39 39 38 38 37 37 36 36 36
53 53 53 52 52 51 51 52 53 53 53 53 53 52 52 51 50 49 48 47 46 44 43 42 43 44 45 45 45 46 46 46 46 46 47 47 48 48 49 50 50 50 49 48 48 47 46 46 45 45 45 46 46 44 43 42 42 41 41 40 40 39 39 38 37 37 37 37 37 38 38 37 37 37 38 40 40 40 40 40 39 39 39 38 38 37 35 34 33 31 30 30 30 30 30 30 30 30 31 31 32 33 33 34 34 35 35 35 35 35 36 36 37 37 38 39 40 41 41 42 41 40 39 39 38 38 38 37 37 36 36
53 53 52 52 52 52 52 53 53 54 54 54 53 53 52 51 50 49 48 47 46 44 43 42 43 44 45 45 46 47 47 47 47 48 48 48 48 48 49 49 50 49 49 48 47 47 46 45 44 44 44 44 44 43 42 41 41 41 40 40 39 39 39 38 38 38 38 38 38 38 38 38 38 38 38 39 39 39 39 39 38 38 38 37 37 36 34 33 32 31 30 30 30 30 30 30 30 31 31 32 32 32 33 34 34 35 35 35 35 35 36 37 37 38 38 40 41 42 42 42 40 40 39 38 38 38 38 38 38 37 37
53 53 52 52 52 52 53 53 54 54 54 54 54 53 52 51 50 49 48 47 45 44 43 43 43 44 45 46 47 47 48 48 48 48 48 48 48 48 49 49 49 49 48 48 47 46 45 44 43 43 43 43 43 42 41 41 40 40 40 39 39 39 39 39 38 38 38 38 39 39 39 39 39 39 39 38 39 39 39 38 37 37 37 36 36 35 34 33 32 31 30 29 29 29 30 30 31 31 32 32 32 32 33 34 34 35 35 35 35 36 36 37 38 38 39 41 42 42 42 42 40 39 39 38 38 38 38 38 38 38 38
53 52 52 52 53 53 53 54 55 55 55 54 53 53 52 51 50 49 48 47 46 45 44 43 44 45 46 47 48 48 48 48 48 48 48 48 48 48 48 49 49 49 48 48 47 46 44 44 43 43 43 43 42 42 41 40 40 40 39 39 39 39 39 39 39 39 39 39 39 40 39 39 39 39 39 38 38 38 38 38 37 36 36 36 35 34 33 32 31 30 29 29 29 29 30 30 31 32 32 33 33 33 33 34 34 34 34 34 35 36 36 37 37 38 39 41 42 42 42 41 40 39 38 38 38 39 39 39 39 39 39
53 53 53 53 53 54 54 55 55 55 54 53 53 52 50 49 49 49 48 47 46 45 45 44 45 46 47 48 48 48 48 48 48 48 48 48 48 48 48 48 48 48 48 48 47 45 44 43 43 43 43 42 42 41 41 40 40 39 39 39 39 40 40 40 40 40 40 40 40 39 39 39 39 39 38 38 37 38 38 37 37 36 36 35 33 32 31 31 30 30 29 29 29 29 30 31 31 32 32 33 33 33 33 34 33 33 34 34 35 35 36 36 37 38 39 40 42 42 41 41 40 39 38 38 39 40 40 40 40 40 40
53 53 53 54 54 54 55 55 55 54 53 53 52 50 49 49 49 49 48 47 46 46 46 45 46 47 48 48 48 48 48 48 48 48 48 48 48 48 48 48 48 48 48 48 47 45 44 43 43 43 42 42 42 41 41 40 40 39 39 39 40 40 40 40 40 40 40 40 40 39 39 39 39 38 38 37 37 37 38 37 36 36 35 33 32 31 30 30 30 30 29 29 29 30 30 31 32 32 32 33 33 33 33 33 33 33 34 34 35 35 35 36 37 37 39 40 41 41 41 41 40 39 38 39 40 41 41 41 40 41 41
54 54 54 54 54 54 54 54 54 53 53 52 51 49 49 48 48 48 48 47 46 46 46 46 46 47 48 48 48 48 48 48 48 48 47 47 47 47 47 47 47 47 47 47 46 45 44 43 43 42 42 42 41 41 41 41 40 40 39 40 41 40 40 40 40 40 40 40 39 39 38 38 38 38 37 36 36 37 36 36 35 34 34 33 31 31 30 29 30 30 30 30 30 30 31 31 32 32 33 33 33 34 34 33 33 33 34 35 35 36 36 37 37 38 39 40 41 41 41 40 40 39 39 40 41 41 41 41 41 41 41
54 54 54 54 54 54 54 54 53 53 52 51 50 49 49 48 48 48 48 47 46 46 46 47 46 46 47 47 47 48 48 48 48 48 47 46 46 46 46 46 47 47 47 47 46 45 44 43 42 42 42 42 41 41 41 42 41 40 40 41 41 40 40 39 39 39 39 39 39 38 38 38 37 37 36 35 36 35 35 34 33 33 32 32 31 30 30 29 30 30 30 30 30 30 31 32 32 33 33 33 34 34 34 34 33 34 35 35 36 36 37 38 38 39 39 40 41 41 40 39 40 40 39 40 41 41 41 41 41 41 41
54 54 54 54 54 54 53 53 53 52 51 51 50 49 49 48 48 48 47 47 46 47 47 47 47 46 46 46 47 48 48 48 48 47 46 45 45 45 45 46 46 47 47 47 46 45 44 43 42 42 42 42 41 42 42 42 42 41 41 41 41 40 40 39 39 39 39 38 38 38 37 37 37 36 35 35 34 34 33 32 31 31 31 31 31 30 29 29 29 30 30 30 30 31 31 32 33 33 33 34 34 34 34 34 34 34 35 36 37 37 38 39 39 39 40 41 41 41 40 39 39 39 40 40 40 41 41 41 41 41 41
53 53 54 54 53 54 54 53 53 52 52 51 51 50 49 49 48 48 48 47 47 47 48 47 46 45 45 46 46 47 48 48 48 47 46 45 45 44 44 45 46 46 46 46 46 45 44 43 42 42 42 42 42 42 42 42 42 42 41 41 41 41 40 39 39 39 39 38 38 37 37 36 36 35 35 34 34 33 33 32 31 31 31 31 31 30 29 29 29 30 30 30 30 31 32 33 33 34 34 34 35 35 35 35 35 35 36 37 37 38 39 39 39 40 40 41 42 41 40 39 39 39 40 40 41 41 41 41 41 41 42
52 53 53 53 53 54 54 54 53 53 52 52 51 51 50 49 49 49 48 48 48 48 48 47 46 45 44 45 45 46 47 48 47 46 45 45 44 43 44 44 45 45 46 46 46 45 44 43 42 42 42 42 42 42 42 42 42 42 42 42 42 41 40 40 39 39 38 38 37 37 36 36 35 35 34 33 33 33 33 32 32 31 31 31 31 30 29 29 29 29 30 30 31 31 32 33 34 34 35 35 35 35 35 36 36 37 37 37 38 38 39 39 40 40 41 41 42 41 41 40 40 40 40 41 41 41 41 41 41 42 42
52 52 52 53 54 54 54 54 54 53 53 53 52 51 51 50 50 49 49 49 48 48 48 47 46 45 44 44 44 45 46 47 47 46 45 44 43 43 43 44 44 45 46 46 46 45 44 43 42 42 42 42 42 42 42 42 42 42 42 42 42 42 41 40 39 39 38 37 37 36 35 35 35 34 33 33 33 33 33 32 32 32 31 31 31 30 30 29 29 29 30 30 31 32 33 34 35 35 35 35 35 35 36 36 37 37 37 37 38 39 39 40 40 40 41 42 42 42 42 41 41 41 41 41 41 41 41 41 42 42 42
51 51 51 52 53 54 54 54 53 53 52 52 51 51 51 51 50 50 50 49 49 49 48 47 47 45 44 45 45 45 46 47 47 46 45 44 43 43 43 44 44 45 46 46 46 45 43 43 42 41 41 41 40 40 40 41 41 41 41 41 41 42 42 40 40 39 38 37 37 36 35 35 35 34 33 32 32 32 32 32 32 31 31 31 31 30 30 30 30 30 31 31 32 33 34 35 36 36 37 37 37 37 37 38 38 38 38 38 38 39 39 40 40 41 41 42 43 43 43 42 41 41 41 41 41 41 41 41 41 42 42
50 50 50 51 53 54 54 53 53 52 52 51 51 51 51 51 51 51 50 50 50 49 48 47 46 46 45 45 45 45 46 46 46 45 44 44 43 43 43 44 44 45 46 46 46 44 43 42 42 41 41 40 39 39 39 39 39 40 40 40 41 42 41 41 40 39 38 37 36 36 35 35 35 34 33 32 32 32 32 32 31 31 31 31 31 30 31 31 31 32 32 32 33 34 35 36 37 38 39 39 39 39 39 39 38 38 38 38 39 39 39 40 41 41 42 43 44 44 43 42 41 41 41 41 41 41 41 41 41 41 42
49 49 49 50 52 53 53 53 53 52 51 51 51 51 51 51 51 51 51 51 50 49 48 46 46 46 46 46 46 46 46 46 46 45 44 43 43 43 43 44 44 45 46 46 45 44 43 42 41 41 40 39 37 38 38 38 38 38 39 40 41 41 41 41 40 39 37 36 36 36 35 35 35 34 33 32 32 32 32 32 31 31 31 31 31 31 31 32 32 32 33 34 35 36 37 38 39 40 41 41 41 41 40 39 38 38 38 38 39 39 39 40 41 41 42 43 44 44 43 43 42 41 41 41 41 40 40 40 41 41 42
48 48 49 50 51 52 53 52 52 51 50 50 50 50 50 50 50 51 51 50 50 48 47 47 46 46 46 46 45 45 45 45 45 44 43 42 42 42 43 43 44 45 46 46 45 44 43 43 42 41 40 39 37 37 38 38 38 38 38 39 40 40 40 40 40 38 37 36 36 35 34 34 33 32 31 31 32 32 32 32 31 31 31 31 31 31 31 31 32 32 33 34 35 36 37 38 39 40 41 41 41 41 41 40 39 39 39 39 39 39 40 40 41 42 43 44 45 44 44 43 42 42 41 41 41 40 40 40 40 41 42
47 48 49 50 51 52 52 51 51 50 50 49 49 49 49 49 50 51 50 50 49 48 47 47 47 46 46 45 45 44 44 44 43 42 42 41 41 42 42 43 45 46 46 46 45 45 44 43 42 41 40 38 37 37 37 37 37 37 37 38 38 39 39 39 39 38 37 36 35 34 33 33 32 31 31 31 32 32 32 31 31 31 31 31 31 31 31 31 31 32 33 34 35 36 37 38 40 40 41 41 42 42 42 41 40 40 40 39 39 40 40 41 42 43 44 44 45 45 44 43 43 42 42 42 41 40 40 40 40 41 41
47 47 48 49 50 51 51 50 50 49 49 48 48 48 48 49 50 50 50 49 48 48 48 47 47 46 45 45 44 43 43 43 42 41 41 41 41 41 42 44 45 46 46 47 46 45 45 44 43 42 40 38 37 37 37 36 36 36 36 36 37 37 38 39 39 38 37 36 34 33 32 31 31 31 31 31 32 32 32 31 31 31 31 31 31 31 31 31 31 32 33 34 35 36 37 39 40 40 41 42 43 43 43 42 41 40 40 40 40 40 41 41 42 43 44 45 45 45 44 44 43 43 43 42 40 40 40 40 40 40 41
46 47 48 49 51 50 50 49 49 48 48 47 48 48 48 48 49 49 49 48 48 47 47 47 47 46 45 45 43 42 42 42 41 40 40 40 40 42 43 44 46 47 47 46 46 45 45 44 43 42 41 40 38 38 38 37 36 35 35 36 36 36 36 37 37 36 35 34 33 33 32 32 31 31 31 32 32 32 32 31 31 30 30 31 31 31 31 31 31 32 33 34 35 36 37 39 40 40 41 43 43 44 43 41 40 40 39 41 41 42 42 43 44 45 44 45 45 45 44 44 44 44 44 43 41 40 40 40 40 40 41
46 47 49 50 50 49 49 48 47 47 47 46 47 47 47 48 47 47 47 48 47 47 47 47 47 46 45 44 42 41 41 41 40 40 39 39 41 42 44 45 47 47 47 46 46 45 45 44 43 42 41 41 39 39 38 37 36 35 35 35 35 35 35 35 35 35 34 33 33 33 32 32 31 31 32 32 32 32 32 31 31 30 30 30 31 31 31 31 32 32 33 34 36 37 38 39 40 41 42 43 44 44 43 41 39 39 40 42 43 43 43 44 45 46 45 45 45 45 45 45 45 45 45 43 42 41 40 40 40 40 41
46 48 49 49 49 49 48 47 47 46 46 46 46 46 46 46 46 46 46 46 47 47 47 47 47 46 45 43 41 40 40 40 39 39 39 39 41 43 44 46 47 47 46 46 45 45 45 44 43 42 41 41 40 39 38 37 36 35 34 34 34 34 34 34 34 34 33 33 33 33 32 32 32 32 32 32 32 32 32 31 30 30 30 30 30 31 31 32 32 32 33 34 36 38 38 39 40 41 43 44 44 44 43 41 39 40 42 44 45 45 45 45 46 46 46 46 46 46 46 46 46 46 45 44 43 41 41 40 40 40 41
46 48 49 49 49 49 48 47 47 46 46 46 46 46 46 46 46 46 46 46 47 47 47 47 47 46 45 43 41 40 40 40 39 39 39 39 41 43 44 46 47 47 46 46 45 45 45 44 43 42 41 41 40 39 38 37 36 35 34 34 34 34 34 34 34 34 33 33 33 33 32 32 32 32 32 32 32 32 32 31 30 30 30 30 30 31 31 32 32 32 33 34 36 38 38 39 40 41 43 44 44 44 43 41 39 40 42 44 45 45 45 45 46 46 46 46 46 46 46 46 46 46 45 44 43 41 41 40 40 40 41
46 48 49 49 49 49 48 47 47 46 46 46 46 46 46 46 46 46 46 46 47 47 47 47 47 46 45 43 41 40 40 40 39 39 39 39 41 43 44 46 47 47 46 46 45 45 45 44 43 42 41 41 40 39 38 37 36 35 34 34 34 34 34 34 34 34 33 33 33 33 32 32 32 32 32 32 32 32 32 31 30 30 30 30 30 31 31 32 32 32 33 34 36 38 38 39 40 41 43 44 44 44 43 41 39 40 42 44 45 45 45 45 46 46 46 46 46 46 46 46 46 46 45 44 43 41 41 40 40 40 41
46 47 49 49 49 48 48 47 47 46 46 45 46 46 47 46 46 46 46 46 46 47 47 47 46 46 45 43 41 40 40 40 39 39 39 39 41 43 44 46 47 47 46 45 45 45 44 43 42 42 41 41 41 40 39 37 36 35 35 34 34 34 34 34 34 33 33 32 32 32 32 32 32 31 31 31 32 32 31 31 30 30 30 30 31 31 31 32 32 32 33 35 36 38 38 39 40 41 43 43 43 43 43 41 39 40 42 44 45 45 45 45 46 46 46 46 45 45 45 46 46 46 46 44 43 42 41 40 40 41 41
45 47 48 48 48 48 48 47 46 45 45 46 46 47 47 47 46 46 46 46 45 46 46 46 46 45 45 42 41 41 41 40 39 39 38 39 41 42 44 45 46 46 45 45 44 44 43 42 42 42 41 41 41 40 39 38 37 36 35 35 34 34 34 34 34 33 32 32 32 32 32 32 31 31 31 31 32 31 31 31 30 30 31 31 31 31 32 32 32 32 34 35 37 38 38 39 39 41 42 42 42 43 42 41 40 41 43 44 45 45 45 46 46 46 46 45 45 45 45 46 46 46 46 45 44 43 42 41 41 42 42
45 46 47 48 48 48 47 46 45 45 45 46 47 47 47 47 46 46 45 45 44 45 45 46 45 45 44 43 42 42 41 39 39 38 38 39 40 42 44 45 46 45 45 44 44 43 42 42 42 42 41 41 41 40 39 38 37 36 35 35 34 34 34 34 33 33 32 32 32 32 32 31 31 31 31 31 31 31 31 30 31 31 31 31 31 32 32 32 32 33 34 36 37 38 38 38 39 40 41 41 42 42 42 42 42 43 44 44 45 45 46 46 46 46 45 45 44 44 45 46 46 47 47 46 45 44 43 42 42 42 43
44 45 47 47 47 47 47 46 45 45 46 47 47 47 48 47 46 45 45 44 43 44 45 45 45 45 44 44 43 42 41 39 38 38 38 38 40 42 43 44 45 45 44 43 43 42 41 41 41 41 41 41 41 40 39 38 37 36 35 34 33 33 33 33 33 32 32 32 32 32 31 31 31 31 31 32 31 31 31 31 32 32 32 32 32 32 32 32 33 34 35 36 37 37 38 38 38 39 40 41 41 42 43 43 43 43 44 44 45 46 46 46 46 45 45 44 44 44 45 47 47 47 48 47 46 45 44 43 43 43 43
43 45 45 46 47 47 46 45 45 45 46 47 47 48 48 47 46 45 45 44 43 43 44 44 44 44 44 43 42 41 41 39 38 38 38 38 39 41 42 43 44 44 43 42 42 41 40 39 39 39 39 39 40 39 38 36 35 34 33 33 32 32 33 33 33 32 32 32 32 32 31 31 32 32 32 32 32 32 32 32 33 33 33 33 33 33 33 32 33 34 35 36 36 36 37 37 38 38 39 40 41 42 43 43 43 44 44 44 45 46 46 46 45 45 44 44 44 44 46 47 47 48 48 47 46 45 44 43 43 43 44
43 43 44 45 45 46 45 45 45 45 46 47 48 48 48 47 46 45 44 43 42 42 42 42 43 44 44 43 42 41 40 39 38 38 38 38 39 40 41 42 43 43 42 41 40 39 38 38 38 37 38 38 39 38 36 34 34 33 32 32 31 31 32 33 32 32 32 32 32 32 31 32 33 33 32 32 32 33 33 33 34 34 34 34 34 34 33 32 33 34 35 35 35 35 36 37 37 38 38 39 41 42 43 43 44 45 44 44 45 45 45 45 45 45 44 44 44 45 46 47 48 48 48 47 47 46 45 44 43 44 44
42 43 43 44 44 45 46 46 45 46 47 48 47 47 47 47 46 45 44 43 42 42 42 42 42 43 43 42 41 40 39 39 38 38 38 38 39 40 40 41 42 41 41 40 40 39 37 37 37 36 37 37 38 36 35 34 33 33 32 32 31 31 31 32 33 33 33 32 32 32 32 33 34 34 33 33 33 34 34 34 35 35 35 35 35 34 34 33 33 34 34 34 34 34 35 36 36 37 38 39 40 42 43 44 45 45 45 45 44 44 44 44 44 44 44 44 43 45 46 47 48 48 48 48 47 47 45 44 44 44 44
42 43 43 43 44 46 47 47 47 48 49 49 48 47 47 46 46 45 45 44 43 43 43 43 43 43 43 42 41 40 39 38 38 38 37 38 39 39 39 40 40 40 39 38 38 38 37 37 36 35 36 36 37 35 34 34 34 34 33 33 32 32 32 32 33 33 33 32 32 33 34 34 34 34 34 35 35 35 35 36 36 36 36 36 36 35 35 34 33 33 34 34 34 34 34 35 36 36 38 39 40 41 43 45 46 46 45 45 44 43 43 43 43 43 43 43 43 44 46 47 48 48 48 48 47 47 46 45 44 44 45
42 42 43 43 45 46 47 48 49 49 50 50 49 48 47 46 45 45 44 44 43 43 44 44 44 43 43 42 41 40 39 38 38 37 37 37 38 39 39 39 39 39 38 37 37 37 37 36 35 34 35 35 36 35 35 34 34 34 34 33 33 32 32 32 33 33 33 32 33 34 35 35 35 35 36 37 37 37 37 37 37 36 36 37 37 36 36 35 34 34 34 34 34 34 34 34 35 36 38 39 40 41 42 44 46 46 46 45 45 44 43 43 43 43 43 43 43 44 45 47 47 48 48 48 48 47 46 45 44 45 46
42 42 43 43 45 46 47 48 49 50 50 51 50 48 47 46 46 45 45 44 44 44 45 44 44 44 43 42 41 41 40 39 38 38 37 36 37 38 38 38 38 38 37 36 36 36 36 36 35 34 34 35 36 35 35 35 35 35 34 34 33 33 33 33 33 33 33 33 35 36 36 36 36 36 37 38 38 38 38 38 38 37 38 38 38 38 37 36 35 34 33 33 33 33 34 34 35 36 37 39 40 41 43 44 46 46 46 46 45 44 43 42 42 42 43 43 43 44 45 46 47 48 48 48 48 48 47 46 45 46 47
42 43 43 44 45 47 48 49 50 50 51 51 50 49 48 47 46 46 45 45 45 45 45 44 44 44 43 42 42 41 41 40 39 39 37 36 36 37 37 37 38 37 36 35 35 35 35 35 35 34 35 35 36 36 35 35 35 35 34 34 33 33 33 33 33 33 33 34 36 37 37 37 37 38 38 38 39 39 39 39 39 39 39 39 40 39 38 38 35 34 33 33 33 33 33 34 34 36 38 40 41 42 43 45 46 47 46 46 45 44 42 41 40 40 42 43 43 44 45 45 46 47 48 48 48 48 48 47 46 47 48
43 43 43 44 46 47 48 49 50 51 51 51 50 49 48 48 47 46 46 46 45 45 44 44 44 44 43 43 42 42 41 41 40 39 37 36 36 36 36 37 37 37 36 35 35 34 34 34 35 34 35 36 36 36 36 35 35 35 34 34 34 33 33 33 33 33 33 34 36 38 38 39 39 39 39 39 39 39 39 40 40 40 40 41 41 40 40 39 36 34 33 33 33 33 33 33 34 36 38 40 41 43 44 45 47 47 46 46 45 43 42 41 40 39 40 42 43 44 44 45 46 47 48 48 49 49 48 48 47 48 48
42 42 43 44 45 46 48 49 50 50 50 51 51 50 49 48 47 47 46 46 46 45 44 44 44 44 44 43 43 42 41 41 40 38 37 37 36 36 35 36 37 36 35 35 35 35 34 34 35 36 36 36 37 37 36 36 35 35 35 34 34 34 33 33 33 33 34 35 37 38 39 40 40 40 40 40 40 40 40 40 41 41 41 41 41 41 40 40 38 35 33 33 33 33 33 33 34 36 38 39 41 42 44 45 46 47 46 45 45 43 42 41 40 39 39 41 43 43 44 44 45 46 47 48 48 49 48 48 47 47 47
41 41 42 43 44 45 47 48 49 49 50 50 50 50 49 48 48 48 47 46 46 45 44 44 44 44 44 44 43 43 41 40 39 38 37 37 36 35 35 35 36 36 35 36 36 36 35 35 36 37 37 38 38 38 37 36 36 35 35 35 34 34 34 33 33 34 35 36 38 39 40 41 41 41 41 41 41 41 41 41 41 41 41 41 41 41 40 40 39 37 35 35 34 33 33 33 34 36 37 38 40 41 43 44 46 46 45 45 44 43 42 41 40 39 40 40 42 43 43 44 45 45 46 47 48 48 48 47 47 47 47
40 40 41 42 43 44 45 47 48 48 49 50 49 49 49 48 48 48 48 47 46 45 44 44 44 44 44 44 44 43 42 40 39 38 38 37 36 35 35 35 35 36 36 36 36 36 36 37 38 39 39 39 39 38 37 36 36 36 35 35 34 34 34 34 34 35 36 37 38 39 40 41 42 42 42 42 42 42 42 42 42 41 41 41 41 41 41 40 39 38 36 35 34 33 33 33 33 35 36 37 39 41 42 44 45 45 45 44 43 43 42 41 40 40 40 41 42 42 43 44 44 45 46 46 47 47 47 47 47 47 47
39 40 40 41 42 44 45 46 46 47 48 48 48 48 48 49 49 48 48 47 47 46 45 44 44 45 45 45 44 43 42 41 39 39 38 37 36 35 35 35 36 36 37 37 37 37 38 38 39 40 40 40 39 38 37 37 37 36 36 35 34 34 34 34 34 35 36 37 38 39 40 41 42 43 43 43 43 43 43 42 42 41 41 41 41 41 41 40 39 38 37 36 35 34 33 33 33 34 36 36 38 39 41 42 43 44 44 43 42 42 41 41 40 40 40 41 41 42 43 43 44 45 46 46 46 46 45 45 45 46 46
39 39 39 40 41 43 44 45 45 46 46 47 47 47 48 49 49 48 48 47 47 46 45 45 45 45 46 45 45 44 42 41 40 39 38 37 36 35 35 36 36 37 38 38 38 39 40 40 40 41 41 40 39 38 38 38 37 37 37 36 35 34 34 34 34 35 35 36 37 38 39 41 42 43 43 43 43 43 43 42 41 41 41 41 41 41 40 40 39 38 37 36 35 34 33 33 33 34 35 36 36 38 39 40 41 42 42 42 41 40 39 40 40 40 40 41 41 42 43 43 44 45 46 46 45 45 44 44 44 44 44
39 39 39 39 41 42 43 43 44 44 45 46 46 47 48 49 49 48 48 48 47 47 46 45 46 46 46 46 45 44 43 41 40 39 38 37 36 36 36 36 37 38 39 39 40 41 43 42 42 41 41 40 39 39 39 38 38 38 37 36 35 34 34 34 34 34 34 34 36 38 39 41 43 43 43 43 43 43 43 42 41 41 41 41 41 40 40 40 39 38 37 37 36 35 34 33 33 34 34 35 36 36 37 38 39 39 40 41 40 39 38 38 39 40 40 41 41 42 43 43 44 45 46 45 44 44 43 42 42 42 42
39 39 39 40 41 42 42 43 43 43 44 45 46 47 48 48 48 48 48 48 48 47 46 46 46 46 46 46 45 43 42 41 40 39 38 37 36 36 36 37 38 38 39 40 41 42 44 43 42 42 41 40 40 39 39 39 39 39 38 37 36 35 35 34 34 34 34 34 36 38 39 41 42 43 43 44 44 43 43 42 41 41 41 41 40 40 39 39 38 38 37 36 36 36 35 34 33 34 35 35 36 37 37 38 38 38 39 39 39 38 37 38 38 40 41 41 42 42 43 43 44 45 45 45 44 44 43 42 42 42 42
39 39 39 40 41 41 41 42 42 43 44 45 46 46 47 47 47 48 48 48 48 47 46 46 46 46 46 46 44 43 42 41 40 39 38 37 37 37 37 38 38 39 39 40 41 43 44 44 43 42 41 40 40 40 40 40 40 40 39 38 37 36 35 34 34 34 34 34 36 37 39 40 42 42 43 44 44 44 43 42 41 41 41 40 39 39 39 38 38 37 37 36 36 36 35 34 34 35 35 36 37 37 37 37 37 38 38 38 37 37 37 37 39 40 41 42 42 43 43 43 44 45 45 45 44 44 43 43 42 42 41
39 39 39 40 40 40 41 41 41 42 43 44 45 45 46 46 47 48 48 48 48 47 46 46 46 46 46 45 43 42 42 41 40 39 38 37 37 37 38 38 38 39 40 40 42 43 44 44 43 42 41 41 40 41 41 41 41 41 40 39 37 36 35 34 34 34 34 34 36 37 38 40 41 42 44 45 45 44 43 42 41 41 40 39 39 38 38 38 37 37 36 36 36 36 36 35 35 35 36 37 37 37 37 37 37 37 37 37 37 37 37 38 39 41 42 42 42 43 43 43 44 45 45 45 45 44 44 43 42 41 40
39 40 40 41 41 41 42 42 42 42 43 44 45 45 46 47 47 48 48 48 48 47 46 45 45 45 45 44 42 41 41 40 39 38 38 38 38 38 38 38 39 40 40 41 42 44 44 44 43 42 41 41 40 41 41 41 41 40 40 39 37 36 35 34 34 34 33 34 35 36 38 39 40 41 43 44 44 43 43 43 42 41 41 40 39 39 38 38 39 38 38 38 38 37 37 36 36 36 37 37 37 37 37 37 37 37 37 37 37 37 37 37 38 40 41 42 42 42 42 43 44 45 46 45 45 45 44 44 43 42 41
40 40 41 41 42 42 43 43 43 43 43 44 45 46 47 47 48 49 48 48 48 47 46 45 44 44 44 42 41 40 40 39 38 38 38 38 38 38 38 39 40 41 41 42 43 44 44 44 44 43 41 40 40 40 40 40 40 40 40 38 37 36 35 34 34 33 33 33 34 36 37 38 39 40 41 43 42 43 44 44 43 42 41 41 40 39 39 39 40 40 40 40 39 39 38 37 37 37 37 37 37 37 37 37 37 37 37 37 37 37 37 37 37 38 40 41 42 42 43 44 44 45 46 46 45 45 45 44 44 43 41
41 41 41 42 43 43 43 43 43 44 44 44 45 46 47 48 49 49 49 49 48 47 46 44 44 43 42 41 40 39 39 38 38 38 39 39 38 38 38 40 41 42 42 42 43 44 44 44 44 44 42 41 40 40 40 40 40 40 39 38 37 36 35 34 33 33 33 33 34 35 36 37 38 39 40 41 42 44 45 45 44 43 42 41 41 40 40 40 40 41 41 41 41 40 39 38 37 37 37 37 37 37 37 37 37 37 37 37 37 37 37 37 37 37 38 40 41 42 43 44 45 46 46 46 45 45 45 45 44 43 42
42 42 42 43 43 44 45 45 45 45 45 45 46 47 48 48 49 50 49 49 49 47 46 45 44 43 43 42 41 40 41 40 40 40 41 40 39 39 39 40 41 42 42 43 43 43 44 44 44 43 42 41 40 40 40 39 39 39 39 38 37 36 35 34 33 33 33 33 34 35 36 37 38 39 41 42 43 44 46 45 44 44 43 42 41 41 40 40 41 41 42 41 41 41 40 39 38 37 37 37 37 37 37 37 37 37 37 37 37 37 37 37 37 37 39 41 42 43 44 45 45 46 46 46 45 45 45 45 45 44 43
43 43 43 43 44 45 45 46 46 46 46 46 46 47 48 49 49 50 50 49 49 48 46 45 44 44 43 42 41 41 42 42 42 42 42 41 40 40 40 41 42 42 43 43 43 43 44 44 43 43 42 41 40 40 40 39 39 39 39 38 37 36 35 34 33 33 33 33 34 35 36 38 39 40 41 43 44 45 46 45 45 45 44 43 42 42 41 40 41 42 42 42 41 41 40 39 38 38 37 37 37 37 37 37 37 37 37 37 37 37 37 37 37 37 39 41 43 44 45 46 46 46 46 46 45 45 45 45 45 44 43
44 44 44 44 45 45 46 47 47 47 47 47 47 48 48 49 50 50 50 50 49 48 47 45 45 44 43 43 42 42 42 43 43 43 43 42 41 41 41 42 42 43 43 43 44 44 44 43 43 43 42 40 40 40 40 39 39 39 38 38 37 36 35 34 33 33 33 33 34 35 36 38 39 41 42 44 45 46 46 46 46 46 45 44 43 42 41 41 41 42 42 42 42 41 40 39 38 38 37 37 37 37 37 37 37 37 37 37 37 37 37 37 37 37 39 42 44 45 46 46 46 46 46 46 46 46 46 46 45 45 44
44 44 44 45 46 46 47 47 48 48 47 47 48 48 49 50 50 50 50 49 49 48 46 45 44 44 44 43 42 42 43 43 44 43 43 42 41 41 42 42 42 42 43 44 44 44 44 44 44 43 42 41 40 40 40 39 39 39 38 38 37 37 36 35 34 34 33 34 35 36 37 38 39 40 42 44 45 46 46 46 46 46 45 44 44 43 42 42 43 43 43 43 42 42 41 40 39 39 38 37 37 37 37 37 37 37 37 37 37 37 37 37 37 37 39 42 44 45 46 45 45 45 46 46 46 46 46 46 46 45 44
44 45 45 46 46 47 47 48 48 48 48 48 48 49 50 50 50 50 49 49 49 47 46 45 44 44 44 43 43 42 43 44 44 43 42 41 41 42 42 42 42 42 43 44 44 45 46 45 44 43 42 41 40 40 40 39 39 39 38 38 37 37 36 35 35 34 34 34 35 36 37 38 38 39 42 44 46 46 46 46 46 46 45 45 45 44 44 43 44 44 44 43 43 42 41 41 40 40 39 38 38 37 37 37 37 37 37 37 37 37 37 37 37 38 40 42 44 45 44 44 44 45 46 46 46 47 47 46 46 45 44
45 45 46 47 47 47 48 48 48 48 48 48 49 50 50 50 50 49 49 49 48 47 46 44 44 44 44 44 43 43 43 44 44 43 42 42 42 42 42 42 42 42 43 44 45 46 47 45 44 43 42 41 41 40 40 39 39 39 38 38 38 37 37 36 35 35 35 35 35 36 37 37 37 39 42 44 46 46 46 46 46 45 45 45 45 45 45 45 45 45 44 44 43 42 42 42 41 40 39 38 38 37 37 37 37 37 37 37 37 37 37 37 38 38 40 42 44 44 43 43 44 45 46 46 47 47 47 47 46 45 43
44 45 46 46 47 47 47 48 48 48 48 48 48 49 49 50 49 49 49 49 49 47 46 45 44 44 44 43 43 43 44 45 44 43 42 42 42 43 43 42 43 43 44 45 46 47 47 45 44 43 42 41 42 42 41 40 39 38 38 38 37 36 36 35 35 34 35 35 35 36 37 37 37 38 40 43 44 44 45 45 45 45 45 45 45 45 45 45 45 45 44 44 43 43 42 42 41 40 39 38 38 37 37 37 37 37 37 37 37 37 37 37 37 38 39 41 44 43 43 43 44 45 46 46 47 48 47 47 47 45 44
44 45 45 45 46 47 47 47 47 47 47 47 48 48 48 49 49 49 49 49 49 48 47 46 45 44 44 43 43 43 44 45 45 44 42 42 43 43 43 44 44 45 45 46 47 47 47 45 44 43 42 43 43 43 42 41 39 38 38 37 36 35 35 34 34 34 35 35 36 36 37 37 37 38 39 41 42 43 44 44 44 44 44 45 45 45 46 46 45 45 44 44 44 44 43 42 41 40 39 38 38 37 37 37 37 37 37 37 37 37 37 37 37 37 39 41 43 43 43 43 44 45 46 46 48 49 48 47 47 46 45
43 44 44 45 45 46 46 46 46 46 46 46 47 47 47 48 48 48 49 49 49 48 47 47 46 45 44 43 43 43 44 45 45 44 42 42 43 43 44 45 45 46 46 47 46 46 46 45 44 43 43 44 44 43 42 41 40 38 37 36 35 34 34 34 34 35 35 36 36 36 37 37 37 38 39 40 41 42 43 43 43 43 44 45 45 46 46 47 46 45 45 45 45 44 43 42 41 40 39 38 38 37 37 37 37 37 37 37 37 37 37 37 37 37 38 40 42 43 43 43 44 45 46 47 48 49 49 48 47 47 46
42 42 43 44 44 45 45 45 45 45 45 46 46 47 47 47 48 48 48 49 49 48 47 47 47 46 45 45 44 45 46 47 47 45 44 43 44 44 44 45 46 46 47 47 46 46 46 45 44 43 42 43 43 42 41 41 39 38 36 35 35 35 34 34 34 35 36 36 37 37 37 37 37 38 39 39 40 40 41 41 41 42 43 44 45 45 46 47 47 46 45 45 45 44 43 42 41 40 39 39 38 38 37 37 37 37 37 37 37 37 37 37 37 37 38 39 41 42 42 43 44 45 46 47 48 49 49 48 48 47 46
41 41 42 43 43 43 44 44 44 44 45 46 46 46 47 47 47 48 48 48 49 48 48 48 48 47 46 46 46 46 47 48 48 46 45 44 44 44 45 45 46 47 47 47 47 46 46 45 44 43 42 42 42 41 41 41 39 37 36 35 35 35 35 34 35 35 36 37 38 38 38 37 37 37 38 39 39 39 39 40 40 41 42 44 45 45 46 47 47 47 46 46 45 44 42 41 40 40 39 39 39 39 38 37 37 37 37 37 37 37 37 37 37 37 38 39 41 41 42 42 43 45 46 47 48 49 49 49 48 47 46
40 41 42 41 42 42 42 43 43 44 45 45 46 46 47 47 47 48 48 48 49 49 49 49 49 48 48 47 47 47 48 49 49 47 45 44 44 44 45 45 46 47 47 47 47 46 45 44 43 42 42 42 41 41 41 40 39 37 36 35 35 35 35 35 35 36 37 38 38 38 38 37 37 37 38 38 39 39 39 39 40 40 41 43 44 45 46 47 47 47 46 45 44 43 42 41 41 40 40 40 40 40 39 38 37 37 37 37 37 37 37 37 37 37 38 39 40 41 41 42 43 44 46 47 49 49 49 49 48 47 46
41 42 42 41 40 41 41 41 42 43 45 45 46 46 47 47 48 48 48 49 49 49 49 49 50 50 49 49 49 48 47 48 48 47 45 45 44 44 44 45 45 46 46 47 46 45 44 43 42 41 41 41 41 41 40 39 39 37 36 36 36 36 36 36 37 38 38 38 38 38 38 37 38 38 38 39 39 39 39 39 39 40 41 42 43 44 45 47 47 47 47 46 45 44 43 42 41 41 41 41 41 41 40 39 37 37 37 37 37 37 37 37 37 37 38 39 40 41 41 43 44 45 46 48 49 50 49 48 48 47 46
42 42 42 41 40 39 40 40 40 42 44 45 46 47 47 48 48 48 49 49 49 49 49 49 50 51 51 50 50 49 49 48 48 47 46 45 44 44 44 44 44 45 45 46 45 44 43 42 41 40 40 41 41 40 39 38 38 37 36 36 37 38 38 38 38 38 38 38 38 38 37 38 39 39 39 39 39 40 40 40 39 40 40 41 42 43 45 47 47 47 47 46 46 45 44 43 42 42 42 42 42 42 41 39 37 37 37 37 37 37 37 37 37 37 38 39 40 41 42 44 45 46 47 48 49 50 49 48 47 46 45
43 43 42 42 41 40 40 40 40 41 44 45 46 46 47 48 48 48 49 49 49 49 49 50 50 51 51 51 51 50 49 49 48 47 46 45 44 44 44 44 43 44 45 45 44 42 41 41 40 40 40 40 40 39 38 37 37 37 37 37 38 39 39 39 39 38 38 38 38 38 38 39 40 40 40 40 40 40 40 40 40 40 40 41 42 43 45 46 47 47 47 47 46 46 45 43 43 43 43 43 43 43 41 39 37 37 37 37 37 37 37 37 37 37 38 39 41 42 44 45 46 47 48 49 50 50 49 48 47 46 45
45 44 44 43 42 42 42 42 41 42 44 44 45 45 46 47 47 48 48 48 49 49 49 50 51 51 51 51 50 49 49 48 47 46 46 45 44 44 44 43 43 43 44 43 42 41 41 41 40 40 40 40 40 38 38 37 37 37 37 38 38 39 39 39 39 39 38 38 38 37 37 38 40 41 40 40 40 40 40 39 39 40 41 41 42 44 45 46 46 47 47 47 46 46 45 44 43 43 43 43 43 42 41 39 38 37 37 37 37 37 37 37 37 37 38 39 42 44 45 46 47 48 49 50 50 49 48 47 46 45 45
46 46 46 45 44 44 44 43 42 43 43 43 44 45 46 46 47 47 47 48 49 49 50 50 51 51 51 50 49 49 48 47 46 46 46 45 44 44 43 43 43 43 42 42 41 41 41 41 40 40 40 39 39 38 38 37 37 37 37 38 39 39 40 40 40 39 38 38 37 36 36 38 40 41 41 40 40 40 39 39 40 40 41 42 42 44 44 45 46 47 47 47 47 47 46 44 43 43 43 43 43 42 41 40 39 38 37 37 37 37 37 37 37 37 38 41 44 45 46 47 48 49 49 49 49 49 47 46 45 45 46
47 46 46 47 46 45 45 44 43 43 43 43 44 45 45 46 46 47 47 48 49 49 50 50 51 51 50 50 49 48 48 47 47 46 46 45 44 44 43 43 43 42 42 41 41 41 42 41 41 40 40 39 39 38 38 38 38 38 38 39 40 40 41 41 41 40 39 37 36 35 36 39 41 42 41 41 41 40 39 39 40 41 41 42 43 43 44 45 46 47 48 48 48 47 46 45 44 44 44 43 43 42 41 40 39 39 38 37 37 37 37 37 37 37 39 42 44 46 47 48 48 49 49 49 49 48 47 46 45 46 47
46 46 47 47 47 46 46 45 44 44 43 43 44 45 45 46 46 47 47 48 49 50 50 50 50 51 50 50 49 49 48 47 47 47 47 46 44 43 43 43 43 42 42 41 41 42 42 42 41 41 40 40 39 39 38 38 39 39 39 40 40 41 42 42 42 41 39 38 37 36 37 39 42 43 42 42 42 41 40 40 41 41 42 43 43 44 45 46 47 48 49 49 48 47 47 46 45 45 45 44 43 42 41 40 40 39 39 38 38 38 37 37 38 38 40 43 45 46 47 48 48 48 49 49 49 48 48 47 46 47 47
45 46 47 47 47 47 47 46 45 45 44 43 44 44 45 45 46 47 47 48 49 50 50 50 50 50 50 50 50 49 48 48 47 47 47 46 45 43 43 43 43 42 42 42 42 42 42 42 42 41 41 40 39 39 38 38 39 40 40 41 41 41 43 44 44 42 39 38 37 37 37 40 42 43 43 43 42 41 40 41 41 42 43 43 43 44 46 47 48 49 50 49 48 47 47 47 46 46 45 45 43 42 41 41 40 40 40 39 39 38 37 37 38 39 41 43 45 46 47 48 48 48 49 49 49 48 48 48 47 47 47
45 46 47 47 47 47 47 46 46 45 45 44 45 45 45 46 46 47 48 49 50 50 50 50 50 50 51 50 50 50 49 49 49 49 48 47 45 43 43 43 43 43 42 42 42 43 43 42 42 42 41 40 40 39 38 38 39 40 41 41 42 42 43 44 44 42 40 38 38 37 39 41 43 43 43 44 44 43 41 41 42 42 43 43 44 45 47 48 49 50 50 49 48 47 47 46 46 46 45 45 43 42 42 41 41 41 40 40 39 38 37 38 39 40 41 43 45 46 47 48 49 49 49 49 49 49 48 48 47 47 47
44 45 46 47 47 47 47 47 47 46 46 46 46 46 46 47 47 47 48 49 50 50 50 50 50 51 51 51 51 51 51 51 51 51 48 47 45 44 44 44 44 43 43 43 43 43 43 42 42 42 41 41 41 40 40 40 41 42 42 43 43 43 44 45 44 42 40 39 38 38 40 42 43 43 43 45 45 44 41 42 42 42 43 44 45 46 47 49 50 50 49 48 47 46 46 46 45 45 45 44 43 42 42 42 41 41 40 40 39 38 39 39 40 40 41 43 45 46 47 48 49 49 49 49 49 49 49 48 47 47 47
43 45 46 47 47 47 47 47 47 47 47 47 47 47 47 47 47 47 48 49 50 50 50 50 50 51 51 52 53 53 53 53 53 51 48 47 46 45 44 44 44 44 44 44 44 43 43 42 42 42 41 41 41 41 41 41 42 43 43 44 44 44 45 45 45 43 41 39 40 40 41 42 42 43 45 47 46 44 42 42 42 42 43 44 45 47 48 49 49 49 49 48 47 46 45 45 45 45 45 44 43 43 42 42 42 41 40 40 39 40 40 40 40 40 41 43 45 46 47 48 49 49 49 49 49 49 49 48 47 47 47
44 46 47 47 47 48 48 48 48 48 48 48 48 48 48 48 48 48 48 49 50 50 50 50 50 51 52 52 53 53 53 53 52 50 48 48 47 46 45 45 45 45 45 45 44 43 43 42 42 42 41 41 41 41 41 41 42 43 44 44 44 44 44 45 44 42 40 40 40 41 41 42 43 44 46 48 47 45 43 43 43 44 44 45 46 47 49 49 49 49 48 47 46 45 45 44 44 44 44 44 43 42 42 42 41 41 41 40 40 40 41 41 41 40 41 43 45 46 47 48 49 49 49 49 50 50 49 49 48 48 48
46 47 48 48 48 48 48 48 49 49 49 49 49 49 49 49 49 49 49 49 50 50 50 50 50 51 52 52 53 53 52 51 50 49 48 48 48 47 46 46 46 45 45 45 44 43 43 43 42 42 41 41 41 41 41 41 42 43 44 44 44 44 44 44 43 41 41 41 41 41 42 43 43 45 48 49 48 46 45 45 45 45 46 46 47 49 49 49 49 49 48 47 46 45 44 44 43 43 43 42 42 42 41 41 41 41 41 40 40 41 41 42 42 42 42 43 45 46 47 48 49 50 50 50 50 50 50 50 49 49 49
48 48 49 49 49 48 49 49 49 49 49 49 49 49 49 49 49 49 50 50 50 50 50 50 51 51 52 53 54 54 52 50 49 49 49 48 48 48 47 47 46 46 45 45 44 44 43 43 43 42 42 41 41 41 41 41 42 43 44 44 44 44 44 43 42 42 42 41 42 42 43 43 44 46 48 51 50 48 46 46 47 47 47 48 48 49 49 49 49 49 48 47 46 45 44 43 43 42 41 41 41 41 41 40 40 40 40 41 41 41 42 43 43 43 44 44 45 46 47 48 49 50 50 50 50 50 50 50 50 50 50
48 49 49 49 49 49 49 49 50 50 50 50 50 50 50 50 50 50 50 50 50 50 50 51 51 52 52 53 54 54 52 51 50 49 49 49 48 48 48 48 48 47 46 45 45 45 44 44 44 44 43 42 42 42 42 41 42 43 44 44 44 45 44 44 43 43 42 42 43 43 43 44 45 47 49 51 52 50 48 48 48 48 48 49 49 49 49 48 48 48 48 47 46 45 44 43 42 41 41 40 40 40 40 40 40 40 41 41 42 43 43 44 44 45 45 46 46 47 48 49 49 50 51 51 51 51 51 51 51 50 50
48 49 49 49 49 49 49 50 50 50 50 50 50 51 51 51 50 50 50 50 50 50 50 51 51 52 52 53 53 53 52 51 50 50 50 50 49 49 49 49 49 48 47 46 46 46 45 45 45 45 45 44 43 43 43 42 42 43 44 44 45 46 45 45 44 44 43 43 43 43 44 45 45 47 50 52 52 52 50 50 50 49 49 49 50 50 49 48 47 47 47 46 45 45 44 43 42 41 40 40 40 39 40 41 41 41 41 43 43 44 45 45 46 46 46 47 47 48 49 50 50 50 51 51 51 51 51 51 51 51 50
49 49 49 49 49 49 50 50 50 50 50 50 50 51 51 51 50 50 50 50 50 50 50 51 51 52 53 52 52 52 51 51 50 50 50 50 50 50 50 50 50 49 48 47 46 46 46 46 47 47 47 46 45 44 43 42 43 43 44 45 46 47 46 46 45 44 44 43 43 43 44 45 46 48 50 53 53 52 52 51 51 50 50 50 50 50 49 48 47 46 46 45 45 44 43 42 41 41 40 39 39 39 39 40 41 42 43 44 45 45 46 47 47 48 48 48 48 49 50 50 50 50 51 51 51 51 51 51 51 51 51
49 49 49 50 50 50 50 50 50 50 50 50 50 51 51 51 50 50 50 50 50 50 50 51 51 52 52 52 52 51 51 51 51 51 51 51 51 51 51 51 51 50 48 47 47 47 47 47 47 47 47 46 45 44 43 43 43 43 44 45 47 47 47 46 45 45 44 44 44 44 44 45 46 48 50 53 53 52 52 51 51 51 51 51 51 50 49 48 47 46 45 45 45 44 43 42 41 41 40 39 39 39 39 40 41 42 43 44 45 46 46 47 48 48 49 49 49 49 50 50 51 51 51 51 51 52 52 52 51 51 51
49 49 49 50 50 50 50 50 50 50 50 50 50 51 51 51 50 50 50 50 50 50 50 51 51 52 52 52 52 51 51 51 51 51 51 51 51 51 51 51 51 50 48 47 47 47 47 47 47 47 47 46 45 44 43 43 43 43 44 45 47 47 47 46 45 45 44 44 44 44 44 45 46 48 50 53 53 52 52 51 51 51 51 51 51 50 49 48 47 46 45 45 45 44 43 42 41 41 40 39 39 39 39 40 41 42 43 44 45 46 46 47 48 48 49 49 49 49 50 50 51 51 51 51 51 52 52 52 51 51 51
49 49 49 50 50 50 50 50 50 50 50 50 50 51 51 51 50 50 50 50 50 50 50 51 51 52 52 52 52 51 51 51 51 51 51 51 51 51 51 51 51 50 48 47 47 47 47 47 47 47 47 46 45 44 43 43 43 43 44 45 47 47 47 46 45 45 44 44 44 44 44 45 46 48 50 53 53 52 52 51 51 51 51 51 51 50 49 48 47 46 45 45 45 44 43 42 41 41 40 39 39 39 39 40 41 42 43 44 45 46 46 47 48 48 49 49 49 49 50 50 51 51 51 51 51 52 52 52 51 51 51
48 48 49 49 49 49 49 50 50 50 49 49 50 51 51 51 50 49 49 49 49 50 50 51 52 52 52 52 51 50 50 50 50 50 50 51 51 51 51 51 51 50 49 48 47 47 47 47 47 48 47 46 46 45 44 43 43 43 44 45 46 46 46 45 46 45 45 45 45 45 45 46 47 49 51 53 53 52 53 53 52 51 51 51 50 50 49 48 47 46 45 45 45 44 43 42 41 41 40 40 40 39 40 41 42 43 44 44 45 46 46 47 48 48 48 48 49 49 50 51 51 51 51 51 52 52 52 52 52 51 51
47 48 48 48 48 49 49 49 49 49 49 49 50 50 51 50 49 48 48 49 49 49 51 52 52 52 52 51 50 49 49 49 50 50 50 51 51 51 51 51 52 51 50 49 48 48 47 47 48 48 48 47 47 46 44 43 43 43 44 45 45 45 45 46 47 46 46 46 46 46 47 48 48 50 52 53 53 54 55 54 53 52 52 51 50 49 48 48 47 46 45 45 44 44 43 42 41 41 41 41 41 40 40 41 42 43 44 44 45 46 46 47 47 48 48 48 49 50 50 51 51 51 51 52 52 52 52 52 52 52 51
47 47 47 47 48 48 49 49 49 49 49 49 50 50 50 50 49 48 48 48 49 50 51 52 52 52 51 50 48 48 48 49 50 50 50 51 51 51 51 52 52 52 51 50 49 48 48 48 48 48 48 48 47 46 44 43 43 43 44 44 44 45 46 47 47 47 47 47 47 47 48 49 49 50 52 53 54 55 56 55 54 53 52 51 50 49 48 47 47 46 45 45 44 43 43 42 42 42 42 42 42 41 41 42 43 44 44 44 45 46 46 47 47 47 48 49 49 50 51 51 51 51 52 52 52 52 52 52 52 52 52
47 47 46 47 47 47 48 48 48 48 49 49 49 49 49 49 48 48 49 49 50 51 52 53 52 51 51 49 48 48 49 49 50 50 50 50 50 50 51 52 52 52 51 50 50 49 48 48 49 48 48 47 47 45 44 43 44 44 44 45 45 45 46 47 48 48 48 49 49 49 49 50 50 51 53 54 54 54 55 54 53 53 51 50 49 48 48 47 46 45 45 44 43 43 44 44 43 44 44 44 43 42 42 43 44 44 45 45 45 45 46 46 47 47 48 49 50 50 51 51 52 52 52 52 52 52 51 51 51 51 51
47 46 46 46 46 46 47 48 48 48 48 48 48 48 48 48 48 48 49 50 51 52 53 54 52 51 50 49 48 48 49 50 50 50 49 49 49 50 50 51 52 52 51 50 50 50 49 49 49 48 47 47 47 45 44 43 44 45 45 45 45 45 46 47 48 48 49 50 50 51 51 51 51 52 54 55 54 54 54 53 53 53 51 50 49 48 47 46 45 45 44 43 43 43 44 45 45 45 45 45 44 44 43 44 44 45 45 45 45 45 46 46 47 47 48 49 50 51 51 51 52 52 52 52 52 52 51 50 50 50 50
46 46 46 45 45 45 46 47 47 47 47 47 47 47 47 48 48 48 49 50 52 53 54 54 53 52 50 49 48 48 49 50 50 49 49 49 49 49 50 51 52 52 51 51 50 50 50 49 48 48 47 47 47 46 44 44 44 45 46 46 46 46 46 47 48 49 51 52 52 52 53 53 53 53 54 55 55 54 54 53 53 52 51 50 49 48 46 46 45 44 44 43 43 43 44 46 47 47 47 46 46 45 45 45 45 46 46 46 46 46 46 46 47 47 48 49 50 51 51 51 51 51 51 52 52 52 51 50 50 50 50
46 46 45 44 44 44 45 46 47 47 47 47 47 47 48 48 48 48 49 51 52 53 54 54 54 52 51 50 49 48 48 49 49 49 49 49 50 50 51 52 54 53 52 51 51 51 50 50 49 49 48 48 48 47 46 45 45 46 47 47 47 47 48 49 49 51 52 53 53 53 53 53 54 53 53 54 54 54 53 52 52 52 51 50 49 48 47 46 46 46 45 45 44 45 46 47 48 48 48 47 47 46 46 46 46 47 47 47 47 47 46 46 47 48 48 49 50 50 51 51 50 50 50 51 51 52 51 50 50 50 49
46 45 44 43 43 43 44 45 46 47 47 47 47 47 48 48 48 48 50 51 52 53 54 54 54 53 52 50 49 48 48 48 49 49 49 49 51 52 52 54 55 54 53 52 52 51 51 51 50 50 49 49 49 48 47 46 46 47 48 48 48 48 49 50 51 52 53 54 54 54 54 54 55 55 54 54 54 53 52 52 51 51 50 50 49 48 47 46 47 47 46 46 46 46 47 48 49 49 48 48 47 47 47 47 47 48 48 48 48 47 46 47 47 48 48 49 50 50 50 50 50 49 49 50 50 51 51 50 50 49 49
45 44 43 42 42 42 43 45 46 46 46 46 47 48 48 48 48 49 50 51 53 53 54 54 54 53 52 50 48 48 48 48 48 48 48 49 51 52 53 55 56 56 54 53 52 52 52 51 51 51 50 50 50 49 48 47 48 48 49 49 49 49 50 51 52 53 54 54 54 54 55 56 56 56 55 54 53 52 52 51 51 51 50 49 49 48 47 47 47 47 48 48 48 48 49 50 50 50 49 48 48 48 48 48 48 49 49 49 48 47 47 47 48 49 49 49 49 49 49 49 49 49 48 49 50 50 50 50 49 48 48
44 43 42 41 41 42 43 45 45 45 45 46 47 47 48 48 48 49 50 51 52 53 53 54 53 52 50 49 48 47 48 48 48 48 48 49 51 52 53 54 56 56 54 54 53 53 53 52 52 52 52 51 51 50 49 49 49 50 50 50 50 51 52 53 53 55 54 54 54 54 54 55 55 55 54 53 52 52 52 52 52 51 50 49 50 49 49 47 48 48 48 48 48 49 50 51 50 50 49 49 48 48 48 49 49 49 49 49 49 48 48 48 49 49 50 50 48 48 48 49 48 48 48 48 49 50 49 49 48 47 47
43 42 41 40 41 42 43 44 44 44 45 46 46 47 48 48 49 49 50 51 52 52 53 53 52 51 49 48 47 47 47 48 48 48 48 49 50 51 53 54 56 56 55 55 54 54 54 53 53 53 53 53 52 51 51 50 51 51 51 52 52 52 53 54 55 55 54 54 54 54 54 54 54 54 53 52 52 52 53 53 52 51 50 51 51 51 49 48 48 49 49 49 49 50 51 51 50 50 49 49 49 49 49 49 50 50 50 50 50 49 49 49 50 50 50 49 47 47 48 48 48 47 47 48 48 49 48 47 46 46 47
42 41 40 40 41 42 43 43 44 44 45 46 46 47 48 48 49 50 50 51 51 52 52 52 51 49 48 48 47 47 47 47 48 48 48 49 50 51 52 54 56 56 56 55 55 55 54 54 54 54 54 54 53 53 52 51 52 52 52 53 53 53 54 55 55 54 53 53 53 53 53 53 53 53 52 52 52 53 53 53 52 51 51 52 52 51 50 49 49 49 50 50 50 50 50 50 50 50 49 49 49 49 50 50 50 50 50 50 50 50 49 50 50 50 49 48 47 47 47 47 47 47 46 47 48 48 47 46 45 46 46
40 39 40 41 42 43 44 44 45 45 46 47 47 48 48 48 49 50 50 51 51 51 51 51 50 49 48 47 46 46 47 47 47 48 47 48 49 50 51 53 55 55 55 55 55 54 53 54 54 54 53 53 53 52 51 51 51 52 52 52 53 53 52 53 53 52 53 53 52 52 52 52 53 53 53 52 52 53 53 53 52 51 52 52 52 50 49 50 49 50 50 50 51 50 49 49 49 49 49 49 49 49 49 50 50 50 50 50 49 49 49 49 50 50 49 48 47 47 47 47 47 46 46 47 47 48 47 46 45 45 45
39 39 40 41 43 44 45 45 46 46 47 48 48 48 48 49 49 50 50 50 50 50 50 50 49 49 48 46 45 45 46 47 47 47 46 47 48 49 50 52 54 54 55 55 54 53 52 52 53 53 53 52 52 51 51 50 51 51 52 52 52 53 52 51 51 52 53 53 52 51 51 52 52 53 53 52 53 53 53 52 52 51 52 51 51 50 50 51 50 50 50 51 51 50 49 48 48 48 49 49 49 49 49 49 50 50 49 49 49 48 48 48 49 50 49 48 47 47 46 46 46 46 46 46 47 48 47 46 45 45 44
39 40 40 42 43 45 46 46 46 47 48 48 48 48 48 48 49 49 49 49 49 49 49 49 49 48 47 46 44 44 45 46 46 46 46 46 47 48 49 51 52 53 54 54 53 52 51 52 52 52 52 51 51 50 50 49 50 50 51 51 52 52 52 51 51 52 53 53 52 51 51 52 53 53 53 53 52 52 52 52 52 52 51 51 51 51 51 51 51 51 51 51 51 50 49 48 47 48 48 48 48 48 48 49 49 49 49 48 48 48 47 48 49 49 48 47 46 46 46 45 45 45 45 46 47 47 46 45 44 43 43
39 40 40 42 43 44 45 46 46 47 47 47 47 47 47 47 47 48 48 48 48 48 48 49 49 48 47 46 45 44 45 46 46 46 46 47 48 48 48 49 51 51 52 53 52 52 51 51 51 52 51 50 50 49 49 49 48 49 49 50 50 51 51 50 50 51 53 53 52 52 53 53 54 54 54 53 52 52 52 52 52 52 52 51 51 51 51 51 52 52 51 51 51 50 49 48 47 47 47 47 47 47 47 48 48 48 48 48 48 47 47 48 48 48 48 47 46 45 45 45 45 45 45 46 46 46 45 43 43 42 41
40 40 40 42 43 44 44 45 46 46 46 45 45 45 45 46 46 47 47 46 46 47 47 48 48 48 47 46 45 45 45 46 46 47 47 48 48 48 48 48 49 50 50 51 51 51 50 50 51 52 51 50 49 49 49 49 48 47 48 48 49 49 50 50 50 51 53 53 53 54 54 55 55 56 54 53 52 52 52 52 52 52 52 52 51 51 51 51 51 52 52 52 51 50 49 47 47 47 46 46 46 46 46 47 48 48 48 48 47 47 47 47 47 47 47 46 45 45 44 44 44 45 45 45 46 46 44 42 41 40 39
40 40 40 41 42 43 43 44 45 45 44 44 44 44 44 45 45 46 46 46 45 46 47 47 47 47 47 46 45 45 46 46 47 47 47 48 48 48 48 48 48 49 49 50 50 50 49 50 51 51 51 50 49 49 49 49 48 47 47 47 48 48 49 49 50 51 53 54 54 54 55 56 56 55 54 53 52 52 51 52 52 53 53 52 52 52 51 51 51 52 52 51 51 50 49 47 46 46 46 45 45 45 46 46 47 47 47 47 47 47 46 46 46 46 46 45 44 44 43 43 44 44 45 45 45 45 44 42 40 39 38
39 40 40 40 40 41 42 43 43 43 43 43 43 43 43 44 44 45 45 45 45 45 46 46 46 46 46 45 45 45 46 47 47 47 48 48 48 48 48 48 48 48 49 49 49 49 49 50 50 51 51 50 49 49 49 49 48 48 47 48 48 48 48 49 50 51 52 53 54 54 55 56 57 55 53 52 51 51 51 52 53 53 53 53 53 53 52 52 51 51 51 51 50 49 49 47 46 46 45 44 45 45 45 46 46 47 47 47 47 46 46 45 45 45 44 44 43 43 43 43 44 44 45 45 45 45 43 42 40 39 38
39 39 39 39 39 40 41 41 42 42 42 41 41 42 42 43 43 44 44 44 44 44 44 44 45 45 45 45 45 45 46 47 47 48 48 48 48 48 48 47 47 47 48 49 49 49 49 49 50 51 50 50 49 49 49 49 49 48 47 48 48 48 48 48 49 51 52 53 54 54 55 56 57 56 53 51 51 51 51 52 53 53 54 54 54 54 54 54 52 51 51 50 49 49 48 47 46 45 44 43 44 45 45 45 46 46 46 47 46 46 45 45 44 44 43 43 42 42 42 43 43 44 45 45 45 44 43 42 40 39 37
